   94.87380000   -42.09480000     2.10000000
   94.87500000   -42.11980000     1.80000000
   94.87630000   -42.14470000     2.50000000
   94.91130000   -42.27150000    -7.70000000
   94.91280000   -42.29900000    -7.20000000
   94.91420000   -42.32660000    -3.70000000
   94.91570000   -42.35420000     0.90000000
   94.91720000   -42.38180000     2.30000000
   94.91870000   -42.40940000     3.70000000
   94.92020000   -42.43690000     5.20000000
   94.92160000   -42.46450000     5.70000000
   94.92310000   -42.49210000     5.20000000
   94.92460000   -42.51970000     5.70000000
   94.92610000   -42.54720000     5.20000000
   94.92760000   -42.57480000     5.70000000
   94.92900000   -42.60240000     6.10000000
   94.93050000   -42.63000000     6.60000000
   94.93200000   -42.65760000     7.10000000
   94.93350000   -42.68510000     6.60000000
   94.93500000   -42.71270000     5.10000000
   94.93640000   -42.73950000     6.60000000
   94.93790000   -42.76630000     5.20000000
   94.93940000   -42.79320000     4.70000000
   94.94090000   -42.82000000     2.30000000
   94.94240000   -42.84680000     0.90000000
   94.94380000   -42.87360000    -1.60000000
   94.94530000   -42.90040000    -2.10000000
   94.94680000   -42.92720000    -2.50000000
   94.94830000   -42.95400000     0.10000000
   94.94980000   -42.98090000     2.50000000
   94.95120000   -43.00770000     4.10000000
   94.95270000   -43.03450000     5.70000000
   94.95420000   -43.06130000     7.20000000
   94.95530000   -43.08950000     6.90000000
   94.95630000   -43.11810000     9.30000000
   94.95740000   -43.14670000     8.70000000
   94.95820000   -43.16950000     9.60000000
   94.96050000   -43.23200000     5.80000000
   94.96150000   -43.26020000     4.30000000
   94.96250000   -43.28830000     2.60000000
   94.96360000   -43.31650000     4.10000000
   94.96460000   -43.34470000     3.50000000
   94.96560000   -43.37290000     1.90000000
   94.96810000   -43.39980000     7.20000000
   94.97100000   -43.42650000     9.70000000
   94.97390000   -43.45320000    12.20000000
   94.97680000   -43.47980000    10.80000000
   94.97970000   -43.50650000     9.40000000
   94.98260000   -43.53320000    10.90000000
   94.98550000   -43.55980000    12.40000000
   94.98840000   -43.58650000    13.90000000
   94.99050000   -43.61310000    11.70000000
   94.99140000   -43.63950000     9.30000000
   94.99240000   -43.66600000     7.90000000
   94.99330000   -43.69240000     6.50000000
   94.99420000   -43.71860000     9.10000000
   94.99510000   -43.74480000     9.70000000
   94.99580000   -43.77080000     9.40000000
   94.99620000   -43.79660000     7.20000000
   94.99650000   -43.82250000     5.80000000
   94.99690000   -43.84830000     5.50000000
   94.99720000   -43.87410000     6.10000000
   94.99760000   -43.89990000     6.70000000
   94.99790000   -43.92570000     8.40000000
   94.99830000   -43.95150000     9.90000000
   94.99860000   -43.97730000     7.60000000
   94.99960000   -44.00360000     6.60000000
   95.00160000   -44.03040000     2.10000000
   95.00360000   -44.05720000    -2.30000000
   95.00560000   -44.08400000    -2.80000000
   95.00760000   -44.11080000     0.70000000
   95.00960000   -44.13760000     6.20000000
   95.01070000   -44.16210000    11.40000000
   95.01170000   -44.18790000    14.10000000
   95.01260000   -44.21380000    12.70000000
   95.01350000   -44.23970000    10.40000000
   95.01450000   -44.26560000     7.10000000
   95.01540000   -44.29150000     6.70000000
   95.01630000   -44.31730000     9.30000000
   95.01900000   -44.34270000    12.40000000
   95.02170000   -44.36810000    15.90000000
   95.02700000   -44.41570000    16.40000000
   95.02970000   -44.43800000    15.40000000
   95.03240000   -44.46020000    15.40000000
   95.03510000   -44.48250000    13.40000000
   95.03780000   -44.50470000     9.40000000
   95.04050000   -44.52700000     7.50000000
   95.04320000   -44.54920000     5.50000000
   95.04590000   -44.57150000     3.50000000
   95.04860000   -44.59370000     1.40000000
   95.05130000   -44.61730000     3.30000000
   95.05400000   -44.64080000     5.10000000
   95.05670000   -44.66430000     6.90000000
   95.05890000   -44.68870000     8.90000000
   95.06120000   -44.71310000     9.80000000
   95.06350000   -44.73750000     8.60000000
   95.06580000   -44.76190000    10.30000000
   95.06800000   -44.78630000    12.10000000
   95.07030000   -44.81070000    12.80000000
   95.07260000   -44.83580000    13.40000000
   95.07490000   -44.86100000    14.20000000
   95.07710000   -44.88610000    16.80000000
   95.07940000   -44.91130000    18.40000000
   95.08030000   -44.93750000    16.90000000
   95.08030000   -44.96440000    17.40000000
   95.08040000   -44.98860000    17.30000000
   95.06940000   -45.08970000     4.00000000
   95.07070000   -45.10930000     2.30000000
   95.07200000   -45.12900000     0.50000000
   95.07330000   -45.14860000    -1.40000000
   95.07460000   -45.16820000    -2.30000000
   95.07600000   -45.18790000    -3.00000000
   95.07730000   -45.20750000    -1.80000000
   95.07860000   -45.22710000     5.40000000
   95.07990000   -45.24680000     9.60000000
   95.08130000   -45.26640000    10.70000000
   95.08260000   -45.28600000    15.90000000
   95.08390000   -45.30570000    24.80000000
   95.08520000   -45.32530000    31.00000000
   95.08650000   -45.34500000    30.30000000
   95.08790000   -45.36460000    28.40000000
   95.08920000   -45.38420000    24.60000000
   95.09050000   -45.40390000    19.90000000
   95.09180000   -45.42350000    18.10000000
   95.09320000   -45.44310000    17.40000000
   95.09460000   -45.46270000    17.60000000
   95.09590000   -45.48230000    18.80000000
   95.09690000   -45.49600000    18.50000000
   95.09860000   -45.52140000    20.30000000
   95.10000000   -45.54100000    17.40000000
   95.10140000   -45.56060000    14.80000000
   95.10270000   -45.58020000    12.90000000
   95.10410000   -45.59980000    13.20000000
   95.10540000   -45.61930000     9.40000000
   95.10680000   -45.63890000     9.70000000
   95.10820000   -45.65850000     8.90000000
   95.10950000   -45.67810000     9.10000000
   95.11090000   -45.69770000     8.30000000
   95.11230000   -45.71730000     8.40000000
   95.11360000   -45.73690000     8.70000000
   95.11500000   -45.75640000     8.90000000
   95.11630000   -45.77600000     7.10000000
   95.11760000   -45.79610000     6.20000000
   95.11890000   -45.81610000     4.40000000
   95.12030000   -45.83610000     3.50000000
   95.12160000   -45.85610000     4.70000000
   95.12290000   -45.87620000     4.90000000
   95.12420000   -45.89620000     7.00000000
   95.12550000   -45.91620000     9.20000000
   95.12680000   -45.93620000    10.30000000
   95.12810000   -45.95630000    11.40000000
   95.12940000   -45.97630000    12.60000000
   95.13070000   -45.99630000    12.80000000
   95.13150000   -46.01660000    10.10000000
   95.13220000   -46.03700000     9.30000000
   95.13260000   -46.05730000     8.10000000
   95.13080000   -46.07680000     7.30000000
   95.12890000   -46.09640000     5.60000000
   95.12710000   -46.11590000     3.70000000
   95.12520000   -46.13550000     5.00000000
   95.12340000   -46.15500000     4.20000000
   95.12150000   -46.17460000     7.40000000
   95.11950000   -46.19430000     8.30000000
   95.11740000   -46.21430000     6.40000000
   95.11530000   -46.23440000     3.50000000
   95.11320000   -46.25450000     3.70000000
   95.11110000   -46.27450000     1.90000000
   95.10900000   -46.29460000     0.20000000
   95.10690000   -46.31460000    -0.70000000
   95.10480000   -46.33470000     0.50000000
   95.10270000   -46.35480000     1.60000000
   95.10060000   -46.37480000     0.70000000
   95.09830000   -46.39560000     2.60000000
   95.09610000   -46.41640000     2.80000000
   95.09380000   -46.43710000     3.80000000
   95.09150000   -46.45790000     4.00000000
   95.08920000   -46.47870000     4.10000000
   95.08690000   -46.49950000     3.10000000
   95.08470000   -46.52020000     2.30000000
   95.08240000   -46.54100000     0.40000000
   95.07500000   -46.55660000     3.00000000
   95.07290000   -46.57690000     1.20000000
   95.07070000   -46.59710000     3.30000000
   95.06860000   -46.61730000     3.50000000
   95.06650000   -46.63760000     4.70000000
   95.06430000   -46.65780000     4.90000000
   95.06220000   -46.67800000     5.00000000
   95.06000000   -46.69840000     6.10000000
   95.05780000   -46.71890000     6.20000000
   95.05560000   -46.73930000     6.20000000
   95.05350000   -46.75970000     7.30000000
   95.05130000   -46.78010000     9.40000000
   95.04690000   -46.82100000     9.70000000
   95.04470000   -46.84140000     7.90000000
   95.04250000   -46.86180000     7.00000000
   95.04020000   -46.88280000     7.90000000
   95.03790000   -46.90380000     8.00000000
   95.03560000   -46.92480000     8.10000000
   95.03320000   -46.94570000     9.10000000
   95.03090000   -46.96670000    12.20000000
   95.02860000   -46.98770000    15.20000000
   95.02630000   -47.00870000    18.10000000
   95.02390000   -47.02960000    20.10000000
   95.02160000   -47.05060000    23.30000000
   95.01950000   -47.06950000    25.40000000
   95.08830000   -47.36560000    10.90000000
   95.08780000   -47.38870000    10.10000000
   95.08740000   -47.40980000    10.20000000
   95.08710000   -47.43090000    11.30000000
   95.08680000   -47.45200000    12.30000000
   95.08640000   -47.47310000    11.40000000
   95.08600000   -47.49460000    10.40000000
   95.08570000   -47.51600000    10.40000000
   95.08530000   -47.53740000     9.40000000
   95.08490000   -47.55890000     9.40000000
   95.08450000   -47.58030000     9.60000000
   95.08420000   -47.60180000     9.60000000
   95.08340000   -47.62350000     8.00000000
   95.08250000   -47.64540000     8.00000000
   95.08160000   -47.66730000     8.90000000
   95.08070000   -47.68920000    10.90000000
   95.07370000   -47.73580000    10.40000000
   95.07020000   -47.75920000    11.30000000
   95.06680000   -47.78250000    11.20000000
   95.06330000   -47.80590000    11.10000000
   95.05980000   -47.82920000    10.90000000
   95.05630000   -47.85260000    10.80000000
   95.05290000   -47.87590000    10.70000000
   95.04930000   -47.89970000    10.40000000
   95.04580000   -47.92350000    11.30000000
   95.04220000   -47.94730000    13.10000000
   95.03870000   -47.97110000    11.90000000
   95.04040000   -48.00690000    17.80000000
   95.04080000   -48.01880000    17.60000000
   95.04150000   -48.04270000    18.50000000
   95.04230000   -48.06650000    19.30000000
   95.04300000   -48.09030000    20.10000000
   95.04370000   -48.11410000    20.90000000
   95.04440000   -48.13790000    20.80000000
   95.04510000   -48.16170000    21.60000000
   95.04590000   -48.18550000    22.40000000
   95.04660000   -48.20930000    22.30000000
   95.04730000   -48.23320000    20.10000000
   95.04800000   -48.25700000    18.90000000
   95.04880000   -48.28080000    17.80000000
   95.04950000   -48.30460000    16.60000000
   95.05020000   -48.32840000    16.50000000
   95.05090000   -48.35220000    16.30000000
   95.05170000   -48.37600000    16.10000000
   95.05240000   -48.39980000    15.10000000
   95.05310000   -48.42370000    14.90000000
   95.05350000   -48.43790000    14.60000000
   95.03330000   -48.44190000    16.30000000
   95.03410000   -48.46530000    16.10000000
   95.03490000   -48.48880000    15.10000000
   95.03570000   -48.51230000    14.90000000
   95.03650000   -48.53570000    15.80000000
   95.03730000   -48.55920000    15.70000000
   95.03810000   -48.58260000    16.40000000
   95.03890000   -48.60610000    16.30000000
   95.03970000   -48.62950000    16.10000000
   95.04050000   -48.65300000    16.00000000
   95.04140000   -48.67650000    15.90000000
   95.04220000   -48.69990000    16.80000000
   95.04300000   -48.72340000    16.60000000
   95.04380000   -48.74680000    15.60000000
   95.04460000   -48.77030000    14.40000000
   95.04520000   -48.78670000    13.90000000
   95.02060000   -48.82610000    15.80000000
   95.02180000   -48.84830000    15.80000000
   95.01760000   -48.86970000    10.40000000
   95.01340000   -48.89110000     8.60000000
   95.01080000   -48.90400000     7.50000000
   94.98710000   -48.91550000     7.50000000
   94.98290000   -48.93670000     6.50000000
   94.97860000   -48.95800000     6.60000000
   94.97440000   -48.97920000    10.60000000
   94.97020000   -49.00040000    12.70000000
   94.96600000   -49.02160000    16.60000000
   94.96180000   -49.04290000    19.60000000
   94.95760000   -49.06410000    18.70000000
   94.95340000   -49.08530000    14.80000000
   94.94920000   -49.10660000    11.90000000
   94.92280000   -49.15830000    11.40000000
   94.91870000   -49.17830000     9.60000000
   94.91460000   -49.19830000     7.90000000
   94.91050000   -49.21830000     8.00000000
   94.90650000   -49.23830000     8.20000000
   94.90240000   -49.25830000     7.40000000
   94.88360000   -49.28190000     8.00000000
   94.87930000   -49.30350000     8.10000000
   94.87500000   -49.32500000     8.10000000
   94.87070000   -49.34650000    10.10000000
   94.86640000   -49.36810000     9.20000000
   94.86340000   -49.38310000     8.70000000
   94.93940000   -49.39000000    14.70000000
   94.93900000   -49.41450000    13.40000000
   94.93870000   -49.43900000    14.30000000
   94.93830000   -49.46340000    16.00000000
   94.93800000   -49.48790000    15.90000000
   94.93770000   -49.51240000    13.70000000
   94.93730000   -49.53680000    12.40000000
   94.93700000   -49.56130000    12.30000000
   94.93660000   -49.58570000    11.10000000
   94.93630000   -49.61020000    11.80000000
   94.93590000   -49.63470000    10.60000000
   94.93560000   -49.65910000    10.40000000
   94.93530000   -49.68360000    11.20000000
   94.93490000   -49.70810000    10.90000000
   94.93460000   -49.73250000     9.80000000
   94.93420000   -49.75700000     9.60000000
   94.93390000   -49.78140000     9.40000000
   94.93350000   -49.80590000    10.20000000
   94.93320000   -49.83070000    11.90000000
   94.93280000   -49.85560000    13.60000000
   94.93250000   -49.88040000    15.30000000
   94.93220000   -49.90520000    18.00000000
   94.93180000   -49.93010000    21.80000000
   94.93140000   -49.95490000    23.40000000
   94.93110000   -49.97970000    23.10000000
   94.93080000   -50.00460000    19.00000000
   94.93050000   -50.02190000    17.40000000
   94.91260000   -50.07290000    13.90000000
   94.91230000   -50.09790000    11.70000000
   94.91190000   -50.12290000    11.40000000
   94.91160000   -50.14780000    12.20000000
   94.91120000   -50.17280000    12.90000000
   94.91090000   -50.19780000    14.70000000
   94.91070000   -50.20780000    15.80000000
   94.88670000   -50.31860000    25.50000000
   94.88640000   -50.34200000    24.40000000
   94.88600000   -50.36550000    23.30000000
   94.88570000   -50.38900000    23.30000000
   94.88530000   -50.41250000    21.10000000
   94.88500000   -50.43590000    20.00000000
   94.88460000   -50.45940000    19.90000000
   94.88430000   -50.48290000    19.80000000
   94.88390000   -50.50640000    18.70000000
   94.88380000   -50.52970000    20.80000000
   94.88460000   -50.55210000    20.80000000
   94.88530000   -50.57460000    20.80000000
   94.88610000   -50.59700000    20.80000000
   94.88680000   -50.61950000    19.80000000
   94.88760000   -50.64190000    19.80000000
   94.88840000   -50.66480000    18.70000000
   94.89060000   -50.68710000    20.30000000
   94.89380000   -50.70880000    21.30000000
   94.89700000   -50.73060000    21.40000000
   94.90020000   -50.75240000    19.50000000
   94.90340000   -50.77410000    16.50000000
   94.90660000   -50.79590000    16.60000000
   94.90980000   -50.81770000    16.60000000
   94.91300000   -50.83940000    16.80000000
   94.91620000   -50.86120000    20.80000000
   94.91940000   -50.88300000    26.60000000
   94.92270000   -50.90480000    35.50000000
   94.92590000   -50.92650000    39.50000000
   94.92910000   -50.94830000    31.80000000
   94.93230000   -50.97010000    22.90000000
   94.93550000   -50.98910000    16.30000000
   94.93870000   -51.00820000    11.70000000
   94.94200000   -51.02720000    10.90000000
   94.94520000   -51.04620000    10.30000000
   94.94840000   -51.06530000    10.60000000
   94.95160000   -51.08430000     9.90000000
   94.95490000   -51.10340000    11.20000000
   94.95850000   -51.12470000    13.90000000
   94.96230000   -51.14740000    13.80000000
   94.96610000   -51.16830000    13.90000000
   94.97000000   -51.18910000    14.90000000
   94.97380000   -51.21000000    13.20000000
   94.97760000   -51.22940000    12.40000000
   94.98150000   -51.24890000    12.70000000
   94.98530000   -51.26840000    13.90000000
   94.98920000   -51.28780000    14.20000000
   94.99300000   -51.30730000    15.40000000
   94.99690000   -51.32680000    15.70000000
   95.12910000   -51.40950000    20.80000000
   95.12720000   -51.43480000    20.80000000
   95.12530000   -51.46010000    21.50000000
   95.12350000   -51.48540000    21.30000000
   95.12160000   -51.51070000    22.90000000
   95.11970000   -51.53600000    23.80000000
   95.11780000   -51.56130000    24.40000000
   95.11600000   -51.58660000    24.10000000
   95.11410000   -51.61190000    23.90000000
   95.11220000   -51.63720000    24.60000000
   95.11030000   -51.66250000    25.30000000
   95.10850000   -51.68780000    25.10000000
   95.10660000   -51.71310000    24.80000000
   95.10470000   -51.73840000    23.60000000
   95.10290000   -51.76390000    21.40000000
   95.10100000   -51.79030000    20.10000000
   95.09920000   -51.81670000    19.80000000
   95.09730000   -51.84320000    20.40000000
   95.09660000   -51.85370000    21.40000000
   95.09290000   -51.90650000    20.80000000
   95.09180000   -51.92240000    21.30000000
   95.09000000   -51.94880000    20.90000000
   95.08810000   -51.97520000    20.60000000
   95.08630000   -52.00160000    21.30000000
   95.08440000   -52.02800000    21.90000000
   95.08260000   -52.05440000    20.50000000
   95.08070000   -52.08080000    19.30000000
   95.07890000   -52.10720000    19.80000000
   95.07700000   -52.13360000    21.50000000
   95.07520000   -52.16000000    21.10000000
   95.07330000   -52.18640000    19.80000000
   95.07150000   -52.21280000    18.50000000
   95.06960000   -52.23920000    18.10000000
   95.06810000   -52.26150000    18.50000000
   95.06660000   -52.28380000    17.60000000
   95.06510000   -52.30620000    16.60000000
   95.06360000   -52.32850000    16.60000000
   95.06210000   -52.35080000    16.60000000
   95.06060000   -52.37320000    16.60000000
   95.05900000   -52.39550000    16.80000000
   95.05750000   -52.41780000    16.80000000
   95.05600000   -52.44020000    16.80000000
   95.05450000   -52.46250000    17.80000000
   95.05300000   -52.48480000    17.80000000
   95.05190000   -52.50040000    17.30000000
   95.05000000   -52.52950000    16.80000000
   95.04850000   -52.55180000    16.80000000
   95.04730000   -52.56990000    16.80000000
   95.04620000   -52.58700000    16.30000000
   95.04520000   -52.60410000    16.60000000
   95.04410000   -52.62120000    17.10000000
   95.04260000   -52.64370000    18.60000000
   95.04100000   -52.66620000    17.80000000
   95.03950000   -52.68870000    17.80000000
   95.03800000   -52.71120000    18.70000000
   95.03550000   -52.73280000    18.60000000
   95.03290000   -52.75430000    17.80000000
   95.03020000   -52.77570000    17.90000000
   95.02760000   -52.79710000    18.00000000
   95.02490000   -52.81860000    19.00000000
   95.02230000   -52.84000000    18.30000000
   95.01990000   -52.86150000    18.70000000
   95.01870000   -52.88330000    14.90000000
   95.01750000   -52.90490000    13.10000000
   95.01640000   -52.92650000    12.20000000
   95.01520000   -52.94820000    13.30000000
   95.01400000   -52.96980000    15.30000000
   95.01280000   -52.99150000    16.30000000
   95.01170000   -53.01310000    16.40000000
   95.01050000   -53.03470000    17.50000000
   95.00930000   -53.05640000    17.60000000
   95.00810000   -53.07800000    16.80000000
   95.00770000   -53.09920000    17.00000000
   95.00770000   -53.12000000    16.30000000
   95.00770000   -53.14090000    16.30000000
   95.00780000   -53.16180000    16.50000000
   95.00780000   -53.18260000    16.80000000
   95.00790000   -53.20350000    16.80000000
   95.00790000   -53.22440000    17.00000000
   95.00790000   -53.24520000    17.10000000
   95.00790000   -53.26610000    16.30000000
   95.00840000   -53.28210000    15.40000000
   95.00890000   -53.29800000    15.10000000
   95.00930000   -53.31400000    17.50000000
   95.00980000   -53.32990000    19.10000000
   95.01030000   -53.34590000    19.80000000
   95.01070000   -53.36190000    20.10000000
   95.01120000   -53.37780000    21.80000000
   95.01170000   -53.39380000    20.30000000
   95.01210000   -53.40970000    18.90000000
   95.01270000   -53.42590000    20.30000000
   95.01400000   -53.44280000    21.80000000
   95.01530000   -53.45960000    21.30000000
   95.01670000   -53.47420000    22.30000000
   95.01820000   -53.48870000    21.90000000
   95.01960000   -53.50320000    23.60000000
   95.02040000   -53.51050000    22.00000000
   95.02430000   -53.54670000    21.00000000
   95.02590000   -53.56110000    18.80000000
   95.02750000   -53.57550000    18.50000000
   95.02920000   -53.58990000    16.30000000
   95.03080000   -53.60430000    16.00000000
   95.03240000   -53.61870000    14.90000000
   95.21150000   -53.62610000    21.80000000
   95.21030000   -53.65230000    20.90000000
   95.20850000   -53.66960000    19.90000000
   95.20630000   -53.68660000    19.00000000
   95.20310000   -53.70240000    18.70000000
   95.19980000   -53.71820000    16.30000000
   95.19650000   -53.73390000    13.10000000
   95.19320000   -53.74970000    10.70000000
   95.18990000   -53.76550000     8.40000000
   95.18670000   -53.78120000     6.10000000
   95.18340000   -53.79700000     5.70000000
   95.17730000   -53.81270000     4.70000000
   95.17100000   -53.82830000     7.00000000
   95.16470000   -53.84400000     5.70000000
   95.15830000   -53.85970000     8.30000000
   95.15200000   -53.87530000     8.90000000
   95.14570000   -53.89100000     9.40000000
   95.13930000   -53.90670000    11.10000000
   95.13300000   -53.92240000    10.80000000
   95.12670000   -53.93800000    11.40000000
   95.12030000   -53.95370000    11.90000000
   95.11400000   -53.96940000    12.60000000
   95.10770000   -53.98500000    12.30000000
   95.10130000   -54.00070000    10.90000000
   95.09500000   -54.01640000    11.40000000
   95.08870000   -54.03200000    11.20000000
   95.08230000   -54.04770000     9.80000000
   95.07610000   -54.06310000    10.60000000
   95.06990000   -54.07850000     9.30000000
   95.06360000   -54.09390000     8.90000000
   95.05740000   -54.10930000     7.70000000
   95.05120000   -54.12470000     9.30000000
   95.04500000   -54.14000000     8.90000000
   95.03870000   -54.15540000     7.60000000
   95.02550000   -54.18520000     8.60000000
   95.01880000   -54.20000000     9.30000000
   95.01220000   -54.21480000    10.90000000
   95.00550000   -54.22970000    11.70000000
   95.00150000   -54.24540000    15.20000000
   95.00010000   -54.26200000    12.80000000
   94.99870000   -54.27850000    11.40000000
   94.99730000   -54.29510000     9.90000000
   94.99590000   -54.31170000     8.60000000
   94.99450000   -54.32830000     8.10000000
   94.99310000   -54.34490000     9.70000000
   94.99170000   -54.36140000     8.30000000
   94.99030000   -54.37800000     6.80000000
   94.99040000   -54.39560000     8.90000000
   94.99090000   -54.41340000    10.40000000
   94.99140000   -54.43130000     9.90000000
   94.99180000   -54.44910000     9.40000000
   94.99230000   -54.46700000     8.70000000
   94.99290000   -54.48430000     7.40000000
   94.99340000   -54.50170000     7.90000000
   94.99350000   -54.51920000     9.60000000
   94.99320000   -54.53670000     8.10000000
   94.99290000   -54.55420000    10.40000000
   94.99260000   -54.57170000    11.90000000
   94.99230000   -54.58930000    14.40000000
   94.99200000   -54.60680000    16.80000000
   94.99080000   -54.64170000    16.50000000
   94.98920000   -54.65890000    16.00000000
   94.98760000   -54.67600000    15.70000000
   94.98570000   -54.69310000    15.40000000
   94.98320000   -54.70990000    13.90000000
   94.98080000   -54.72680000    13.40000000
   94.97820000   -54.74440000    11.90000000
   94.97520000   -54.76280000     9.70000000
   94.97190000   -54.78160000     8.10000000
   94.96860000   -54.80030000     7.50000000
   94.96530000   -54.81910000     7.90000000
   94.96200000   -54.83790000     9.20000000
   94.95870000   -54.85670000    10.60000000
   94.95540000   -54.87550000    12.90000000
   94.95210000   -54.89430000    13.30000000
   94.94860000   -54.91430000    11.40000000
   94.94520000   -54.93430000    11.70000000
   94.94170000   -54.95430000    11.90000000
   94.93820000   -54.97430000    13.20000000
   94.93470000   -54.99430000    13.40000000
   94.93120000   -55.01430000    12.80000000
   94.92770000   -55.03430000    13.90000000
   94.92290000   -55.05530000    11.30000000
   94.91730000   -55.07690000    10.40000000
   94.91220000   -55.09590000     9.40000000
   94.82800000   -55.20370000    26.00000000
   94.83630000   -55.22450000    25.80000000
   94.84460000   -55.24520000    24.10000000
   94.85280000   -55.26600000    21.40000000
   94.86110000   -55.28670000    18.60000000
   94.86930000   -55.30740000    14.90000000
   94.87760000   -55.32820000    12.20000000
   94.88580000   -55.34890000    10.40000000
   94.89410000   -55.36960000     9.70000000
   94.90230000   -55.39040000    10.90000000
   94.91060000   -55.41110000    13.10000000
   94.91880000   -55.43190000    16.30000000
   94.92710000   -55.45260000    16.40000000
   94.93530000   -55.47330000    18.60000000
   94.94360000   -55.49410000    19.80000000
   94.95180000   -55.51480000    21.00000000
   94.95990000   -55.53330000    22.10000000
   94.96800000   -55.55180000    22.50000000
   94.97610000   -55.57040000    22.00000000
   94.98410000   -55.58890000    22.40000000
   94.99220000   -55.60740000    22.80000000
   95.00030000   -55.62590000    23.30000000
   95.00840000   -55.64440000    22.60000000
   95.01640000   -55.66300000    23.00000000
   95.02450000   -55.68150000    23.40000000
   95.03260000   -55.70000000    23.90000000
   95.04060000   -55.71850000    22.30000000
   95.04870000   -55.73700000    20.80000000
   95.05690000   -55.75610000    20.30000000
   95.06520000   -55.77520000    18.60000000
   95.07340000   -55.79430000    17.90000000
   95.08160000   -55.81330000    17.30000000
   95.08980000   -55.83240000    17.80000000
   95.09800000   -55.85150000    17.10000000
   95.10620000   -55.87060000    17.40000000
   95.11450000   -55.88960000    16.80000000
   95.12270000   -55.90870000    16.30000000
   95.12290000   -55.92310000    13.20000000
   95.12300000   -55.93760000    12.90000000
   95.12320000   -55.95200000    13.70000000
   95.12340000   -55.96640000    13.40000000
   95.12360000   -55.98080000    13.30000000
   95.12370000   -55.99520000    12.90000000
   95.12390000   -56.00970000    10.80000000
   95.12410000   -56.02410000     9.60000000
   95.12430000   -56.03850000    10.40000000
   95.12170000   -56.05300000     9.80000000
   95.11910000   -56.06750000    10.40000000
   95.11650000   -56.08200000    11.30000000
   95.11390000   -56.09650000    12.10000000
   95.11130000   -56.11100000    13.80000000
   95.10870000   -56.12550000    15.40000000
   95.10580000   -56.13830000    15.20000000
   95.10290000   -56.15120000    11.20000000
   95.10010000   -56.16400000    10.10000000
   95.09720000   -56.17690000    11.90000000
   95.09430000   -56.18970000    11.90000000
   95.09150000   -56.20250000    11.80000000
   95.08840000   -56.21580000    12.40000000
   95.08530000   -56.22910000    13.40000000
   95.08220000   -56.24240000    14.30000000
   95.07920000   -56.25570000    15.10000000
   95.07610000   -56.26900000    14.90000000
   95.07300000   -56.28230000    15.90000000
   95.06530000   -56.31550000    19.90000000
   95.06380000   -56.32220000    18.30000000
   95.06070000   -56.33550000    16.30000000
   95.05760000   -56.34880000    14.20000000
   95.05460000   -56.36210000    13.10000000
   95.05150000   -56.37540000    13.90000000
   95.04840000   -56.38870000    14.80000000
   95.04530000   -56.40200000    13.70000000
   95.04180000   -56.41630000    15.10000000
   95.03820000   -56.43060000    13.90000000
   95.03470000   -56.44490000    13.60000000
   95.03120000   -56.45920000    10.40000000
   95.02590000   -56.47270000     9.90000000
   95.02070000   -56.48630000    11.70000000
   95.01490000   -56.50100000    14.90000000
   95.00910000   -56.51570000    16.60000000
   95.00330000   -56.53040000    15.40000000
   94.99750000   -56.54510000    16.10000000
   94.99170000   -56.55980000    18.90000000
   94.98590000   -56.57450000    22.60000000
   94.98010000   -56.58920000    20.30000000
   94.97430000   -56.60390000    15.30000000
   94.96850000   -56.61860000     8.20000000
   94.96510000   -56.63610000    11.60000000
   94.96170000   -56.65350000    17.00000000
   94.95830000   -56.67100000    21.40000000
   94.95490000   -56.68850000    21.00000000
   94.95150000   -56.70590000    20.50000000
   94.94810000   -56.72340000    22.00000000
   94.95060000   -56.82220000    18.90000000
   94.94970000   -56.84370000    17.10000000
   94.94880000   -56.86520000    15.40000000
   94.94800000   -56.88670000    15.60000000
   94.94710000   -56.90810000    16.80000000
   94.94620000   -56.92960000    16.90000000
   94.94530000   -56.95110000    17.10000000
   94.94450000   -56.97260000    15.40000000
   94.94340000   -56.99610000    14.30000000
   94.94230000   -57.01970000    13.30000000
   94.94130000   -57.04320000    14.30000000
   94.94020000   -57.06670000    12.40000000
   94.93910000   -57.09030000    10.40000000
   94.93810000   -57.11380000     9.40000000
   94.93380000   -57.08780000    26.00000000
   94.93220000   -57.10120000    25.80000000
   94.93050000   -57.11460000    27.60000000
   94.92880000   -57.12790000    28.40000000
   94.92720000   -57.14130000    29.30000000
   94.92550000   -57.15460000    31.20000000
   94.92380000   -57.16800000    32.00000000
   94.92220000   -57.18130000    31.90000000
   94.92050000   -57.19470000    32.80000000
   94.91960000   -57.21220000    36.00000000
   94.91770000   -57.22750000    35.80000000
   94.91570000   -57.24280000    35.50000000
   94.91370000   -57.25810000    35.30000000
   94.91170000   -57.27330000    36.00000000
   94.90980000   -57.28860000    35.60000000
   94.90900000   -57.29470000    36.10000000
   94.94410000   -57.35880000    38.80000000
   94.94230000   -57.37350000    38.60000000
   94.94040000   -57.38810000    38.50000000
   94.93850000   -57.40280000    37.30000000
   94.93660000   -57.41740000    35.00000000
   94.93470000   -57.43210000    34.80000000
   94.93290000   -57.44670000    32.60000000
   94.93100000   -57.46140000    32.50000000
   94.92910000   -57.47600000    31.20000000
   94.92720000   -57.49070000    31.90000000
   94.92530000   -57.50530000    31.80000000
   94.92340000   -57.52000000    31.50000000
   94.92160000   -57.53440000    30.40000000
   94.91970000   -57.54890000    28.30000000
   94.91790000   -57.56340000    27.00000000
   94.91600000   -57.57780000    25.80000000
   94.91420000   -57.59230000    24.60000000
   94.91230000   -57.60670000    24.40000000
   94.91040000   -57.62120000    25.30000000
   94.90860000   -57.63570000    24.00000000
   94.90670000   -57.65010000    22.90000000
   94.90490000   -57.66460000    21.80000000
   94.90300000   -57.67900000    21.50000000
   94.90120000   -57.69350000    20.30000000
   94.90050000   -57.70820000    21.00000000
   94.89970000   -57.72300000    20.80000000
   94.89900000   -57.73770000    20.50000000
   94.89830000   -57.75250000    20.30000000
   94.89760000   -57.76720000    20.10000000
   94.89690000   -57.78190000    21.90000000
   94.89620000   -57.79670000    20.80000000
   94.89550000   -57.81140000    21.40000000
   94.88060000   -57.83540000    23.40000000
   94.87990000   -57.85130000    23.10000000
   94.87920000   -57.86820000    23.80000000
   94.87850000   -57.88520000    25.30000000
   94.87780000   -57.90210000    24.90000000
   94.87710000   -57.91900000    23.50000000
   94.87750000   -57.92960000    24.40000000
   94.87790000   -57.94020000    25.50000000
   94.87820000   -57.95080000    26.80000000
   94.87860000   -57.96130000    27.80000000
   94.87900000   -57.97190000    27.90000000
   94.87930000   -57.98250000    28.00000000
   94.88170000   -57.99590000    28.40000000
   94.88410000   -58.00940000    30.30000000
   94.88650000   -58.02280000    31.20000000
   94.88890000   -58.03630000    31.10000000
   94.89130000   -58.04970000    33.00000000
   94.89840000   -58.09010000    32.80000000
   94.90080000   -58.10350000    30.60000000
   94.90320000   -58.11700000    28.50000000
   94.91420000   -58.14260000    25.00000000
   94.91340000   -58.15610000    24.90000000
   94.91260000   -58.16970000    25.80000000
   94.91190000   -58.18320000    24.80000000
   94.91110000   -58.19670000    24.60000000
   94.90960000   -58.22380000    28.30000000
   94.90880000   -58.23730000    28.30000000
   94.90810000   -58.25090000    28.10000000
   94.90730000   -58.26440000    27.00000000
   94.90660000   -58.27790000    27.90000000
   94.90580000   -58.29150000    27.80000000
   94.90660000   -58.30670000    27.90000000
   94.90770000   -58.32230000    28.60000000
   94.90880000   -58.33790000    28.40000000
   94.90990000   -58.35350000    27.10000000
   94.91110000   -58.36870000    25.90000000
   94.91220000   -58.38380000    24.80000000
   94.91330000   -58.39900000    22.40000000
   94.91450000   -58.41410000    22.30000000
   94.91560000   -58.42920000    21.00000000
   94.91670000   -58.44440000    19.80000000
   94.91790000   -58.45950000    18.50000000
   95.00620000   -58.52520000    23.10000000
   95.00740000   -58.54070000    23.80000000
   95.00850000   -58.55620000    23.60000000
   95.01190000   -58.60150000    25.80000000
   95.01310000   -58.61670000    27.60000000
   95.01420000   -58.63180000    27.30000000
   95.01740000   -58.64730000    29.60000000
   95.02200000   -58.66320000    27.30000000
   95.02660000   -58.67900000    27.00000000
   95.03130000   -58.69480000    24.80000000
   95.03590000   -58.71060000    24.50000000
   99.78510000   -57.50780000     1.10000000
   99.82030000   -57.52640000     0.70000000
   99.85560000   -57.54510000     2.00000000
   99.89080000   -57.56370000     1.50000000
   99.92600000   -57.58230000    -0.20000000
   99.96320000   -57.60130000    -0.20000000
  100.00050000   -57.62030000     0.20000000
  100.03820000   -57.63960000     0.90000000
  100.07600000   -57.65880000     5.40000000
  100.09490000   -57.66840000     6.60000000
  100.08140000   -57.73180000     5.80000000
  100.07900000   -57.71650000     6.10000000
  100.07660000   -57.70120000     7.30000000
  100.07490000   -57.68560000    10.20000000
  100.07800000   -57.54850000     1.80000000
  100.08020000   -57.52740000     4.50000000
  100.08250000   -57.50640000     6.20000000
  100.08440000   -57.48150000     7.90000000
  100.08630000   -57.45660000     9.90000000
  100.08820000   -57.43180000    11.90000000
  100.09010000   -57.40690000    13.10000000
  100.09190000   -57.38200000    15.10000000
  100.09250000   -57.35740000    13.90000000
  100.09280000   -57.33300000    13.90000000
  100.09300000   -57.30850000    12.90000000
  100.09320000   -57.28400000    11.90000000
  100.09360000   -57.26100000    13.10000000
  100.09400000   -57.23800000    10.90000000
  100.09440000   -57.21500000    10.90000000
  100.09470000   -57.19210000    11.80000000
  100.09540000   -57.17210000    12.10000000
  100.09650000   -57.15680000    10.40000000
  100.09660000   -57.14130000     9.30000000
  100.09600000   -57.12570000    10.60000000
  100.09500000   -57.10630000    10.60000000
  100.09360000   -57.08290000    11.60000000
  100.09230000   -57.05960000    10.40000000
  100.09090000   -57.03630000    10.40000000
  100.08960000   -57.01300000     8.40000000
  100.08820000   -56.98960000     6.50000000
  100.08680000   -56.96630000     2.50000000
  100.08550000   -56.94300000     1.40000000
  100.08410000   -56.91970000    -3.60000000
  100.08270000   -56.89640000    -1.80000000
  100.08140000   -56.87300000     1.30000000
  100.08000000   -56.84970000     1.20000000
  100.07870000   -56.82640000     2.30000000
  100.07730000   -56.80310000     4.20000000
  100.07590000   -56.77970000     7.10000000
  100.07460000   -56.75640000     9.90000000
  100.07320000   -56.73310000    12.90000000
  100.07190000   -56.70970000    12.90000000
  100.07050000   -56.68630000    12.90000000
  100.06910000   -56.66290000    13.80000000
  100.06780000   -56.63960000    14.80000000
  100.06640000   -56.61620000    15.80000000
  100.06500000   -56.59280000    19.60000000
  100.06390000   -56.57220000    25.00000000
  100.06350000   -56.55810000    28.10000000
  100.06320000   -56.55100000    28.80000000
  100.10750000   -56.52340000    36.30000000
  100.10750000   -56.50340000    46.80000000
  100.10730000   -56.48350000    58.50000000
  100.10630000   -56.46350000    70.10000000
  100.10580000   -56.45340000    73.90000000
  100.10540000   -56.44340000    76.70000000
  100.10490000   -56.43340000    77.50000000
  100.10440000   -56.42340000    78.40000000
  100.10340000   -56.40340000    77.10000000
  100.10240000   -56.38330000    65.90000000
  100.10140000   -56.36260000    58.80000000
  100.10040000   -56.34180000    50.50000000
  100.09930000   -56.32110000    38.50000000
  100.09830000   -56.30030000    28.40000000
  100.09720000   -56.27960000    21.30000000
  100.09620000   -56.25880000    14.30000000
  100.09520000   -56.23810000    11.90000000
  100.09410000   -56.21730000     8.90000000
  100.09310000   -56.19660000     1.60000000
  100.09200000   -56.17580000     0.50000000
  100.09100000   -56.15510000    -1.80000000
  100.09000000   -56.13430000    -1.00000000
  100.08890000   -56.11350000     0.70000000
  100.08790000   -56.09280000     2.50000000
  100.08680000   -56.07200000     3.30000000
  100.08580000   -56.05130000     5.00000000
  100.08480000   -56.03050000     4.80000000
  100.08370000   -56.00980000     5.60000000
  100.08270000   -55.98950000     5.30000000
  100.08170000   -55.96920000     5.10000000
  100.08080000   -55.94890000     3.70000000
  100.07980000   -55.92860000     4.50000000
  100.07880000   -55.90830000     5.20000000
  100.07780000   -55.88800000     6.00000000
  100.07680000   -55.86770000     7.70000000
  100.07580000   -55.84750000     8.40000000
  100.07480000   -55.82720000    11.10000000
  100.07420000   -55.80720000    11.10000000
  100.07360000   -55.78730000    11.80000000
  100.07300000   -55.76730000    11.40000000
  100.07230000   -55.74740000    11.20000000
  100.07170000   -55.72740000    10.90000000
  100.07110000   -55.70750000    12.60000000
  100.07050000   -55.68750000    13.30000000
  100.06990000   -55.66760000    12.90000000
  100.06920000   -55.64760000    13.70000000
  100.06770000   -55.60480000    16.10000000
  100.06700000   -55.58330000    16.90000000
  100.06700000   -55.56220000    16.40000000
  100.06690000   -55.54120000    17.30000000
  100.06690000   -55.52010000    18.90000000
  100.06690000   -55.49900000    19.80000000
  100.06680000   -55.47790000    19.50000000
  100.06680000   -55.45680000    19.40000000
  100.06650000   -55.43560000    20.00000000
  100.06630000   -55.41430000    20.80000000
  100.06600000   -55.39300000    20.60000000
  100.06570000   -55.38190000    19.30000000
  100.06420000   -55.32660000    15.10000000
  100.06360000   -55.30450000    15.10000000
  100.06300000   -55.28240000    14.90000000
  100.06240000   -55.26030000    15.80000000
  100.06190000   -55.23810000    16.60000000
  100.06130000   -55.21600000    16.50000000
  100.06070000   -55.19390000    17.40000000
  100.06010000   -55.17180000    18.30000000
  100.05950000   -55.14960000    18.30000000
  100.05890000   -55.12750000    19.10000000
  100.05940000   -55.10500000    18.70000000
  100.06060000   -55.08210000    17.80000000
  100.06180000   -55.05930000    16.80000000
  100.06300000   -55.03600000    16.60000000
  100.06420000   -55.01280000    14.80000000
  100.06540000   -54.98960000    13.70000000
  100.06660000   -54.96640000    14.70000000
  100.06770000   -54.94310000    15.60000000
  100.06890000   -54.91990000    15.70000000
  100.07010000   -54.89670000    16.50000000
  100.07130000   -54.87340000    17.50000000
  100.07250000   -54.85020000    18.50000000
  100.07360000   -54.82660000    18.50000000
  100.07140000   -54.80120000    16.90000000
  100.06840000   -54.77550000    18.30000000
  100.06530000   -54.74980000    17.40000000
  100.06230000   -54.72400000    17.60000000
  100.05930000   -54.69830000    18.80000000
  100.05620000   -54.67250000    18.10000000
  100.05320000   -54.64680000    18.30000000
  100.05020000   -54.62100000    17.50000000
  100.04710000   -54.59530000    15.90000000
  100.04410000   -54.56960000    13.20000000
  100.04110000   -54.54380000    13.40000000
  100.03810000   -54.51910000    15.60000000
  100.03520000   -54.49430000    15.70000000
  100.03230000   -54.46950000    12.90000000
  100.02940000   -54.44480000    12.10000000
  100.00860000   -54.26530000    13.70000000
  100.00740000   -54.24290000    16.90000000
  100.00720000   -54.22060000    17.90000000
  100.00700000   -54.19830000    17.80000000
  100.00680000   -54.17600000    17.80000000
  100.00660000   -54.15370000    17.80000000
  100.00630000   -54.13140000    17.80000000
  100.00610000   -54.10910000    18.60000000
  100.00590000   -54.08680000    19.50000000
  100.00570000   -54.06440000    21.40000000
  100.00550000   -54.04210000    24.30000000
  100.00530000   -54.01980000    26.30000000
  100.00510000   -53.99750000    22.30000000
  100.00480000   -53.97520000    21.30000000
  100.00460000   -53.95290000    21.30000000
  100.00440000   -53.93060000    21.10000000
  100.00420000   -53.90830000    17.10000000
  100.00400000   -53.88610000    13.20000000
  100.00380000   -53.86380000     9.30000000
  100.00360000   -53.84150000    10.20000000
  100.00340000   -53.81930000    10.10000000
  100.00450000   -53.79750000     9.60000000
  100.00590000   -53.77580000     8.40000000
  100.00730000   -53.75410000     3.50000000
  100.00870000   -53.73240000    -1.60000000
  100.01010000   -53.71070000    -1.80000000
  100.01160000   -53.68900000    -1.80000000
  100.01300000   -53.66730000    -0.90000000
  100.01440000   -53.64560000     0.10000000
  100.01580000   -53.62390000    -0.20000000
  100.01720000   -53.60220000    -2.30000000
  100.01860000   -53.58050000    -2.30000000
  100.02010000   -53.55880000    -0.50000000
  100.02150000   -53.53720000     1.50000000
  100.02300000   -53.51680000     2.30000000
  100.02450000   -53.49640000     3.10000000
  100.02600000   -53.47620000     3.80000000
  100.02740000   -53.45620000     4.70000000
  100.02890000   -53.43630000     6.40000000
  100.03030000   -53.41630000     8.10000000
  100.03180000   -53.39630000     5.90000000
  100.03320000   -53.37640000     3.60000000
  100.03470000   -53.35640000     5.40000000
  100.03570000   -53.34250000     7.60000000
  100.03910000   -53.29660000     5.60000000
  100.04050000   -53.27660000     6.40000000
  100.04200000   -53.25660000     7.10000000
  100.04340000   -53.23670000     6.90000000
  100.04490000   -53.21670000     6.70000000
  100.04630000   -53.19680000     7.40000000
  100.04780000   -53.17680000     7.20000000
  100.04930000   -53.15780000     8.90000000
  100.05080000   -53.13870000    10.40000000
  100.05230000   -53.11970000    11.20000000
  100.05380000   -53.10040000    11.90000000
  100.05530000   -53.08120000    11.60000000
  100.05680000   -53.06200000    13.30000000
  100.05830000   -53.04280000    12.90000000
  100.05980000   -53.02350000    12.70000000
  100.06130000   -53.00430000    13.30000000
  100.06280000   -52.98510000    12.90000000
  100.06430000   -52.96590000    12.70000000
  100.06610000   -52.94670000    13.30000000
  100.06850000   -52.92780000    12.90000000
  100.06510000   -52.90790000     6.70000000
  100.06030000   -52.88770000     7.40000000
  100.04010000   -52.85580000     5.20000000
  100.03530000   -52.83410000     3.10000000
  100.03040000   -52.81240000     4.10000000
  100.02550000   -52.79070000     4.00000000
  100.02060000   -52.76900000     4.90000000
  100.01570000   -52.74730000     5.80000000
  100.01090000   -52.72570000     5.70000000
  100.00600000   -52.70400000     6.60000000
   99.99850000   -52.68450000     4.70000000
   99.99110000   -52.66500000     5.40000000
   99.98360000   -52.64560000     7.10000000
   99.97610000   -52.62610000     8.70000000
   99.96870000   -52.60660000     6.60000000
   99.96120000   -52.58710000     6.20000000
   99.95370000   -52.56770000     3.00000000
   99.94630000   -52.54820000     3.70000000
   99.93880000   -52.52870000     5.50000000
   99.93130000   -52.50930000     6.20000000
   99.92390000   -52.48980000     7.90000000
   99.91640000   -52.47030000     8.60000000
   99.90910000   -52.45160000     8.40000000
   99.90190000   -52.43290000     5.10000000
   99.89460000   -52.41420000     1.80000000
   99.88800000   -52.39740000     4.30000000
   99.88070000   -52.37990000     8.30000000
   99.72960000   -52.30620000    17.30000000
   99.72940000   -52.28560000    18.10000000
   99.72930000   -52.26500000    18.90000000
   99.72910000   -52.24440000    18.80000000
   99.72900000   -52.22380000    18.60000000
   99.72880000   -52.20320000    18.40000000
   99.72860000   -52.18260000    16.30000000
   99.72850000   -52.16200000    14.30000000
   99.72830000   -52.14140000    14.10000000
   99.72810000   -52.12080000    15.90000000
   99.72800000   -52.10430000    16.30000000
   99.74530000   -52.08150000     9.70000000
   99.75980000   -52.06240000     9.40000000
   99.77420000   -52.04340000     8.10000000
   99.78870000   -52.02440000     7.80000000
   99.80310000   -52.00530000     7.50000000
   99.81760000   -51.98630000     6.20000000
   99.83200000   -51.96730000     6.90000000
   99.84700000   -51.94730000    11.20000000
   99.86190000   -51.92740000    10.90000000
   99.87690000   -51.90750000    10.80000000
   99.89180000   -51.88760000     9.60000000
   99.90680000   -51.86770000    10.30000000
   99.92170000   -51.84780000    11.10000000
   99.93670000   -51.82790000    11.90000000
   99.96660000   -51.78810000     5.50000000
   99.98150000   -51.76820000     5.30000000
   99.99650000   -51.74830000     6.10000000
  100.01140000   -51.72840000     7.80000000
  100.02560000   -51.70960000     4.60000000
  100.08400000   -51.64680000    12.10000000
  100.08470000   -51.62710000    12.90000000
  100.08540000   -51.60750000    13.60000000
  100.08610000   -51.58780000    13.40000000
  100.08690000   -51.56820000    13.10000000
  100.08760000   -51.54850000    13.90000000
  100.08830000   -51.52880000    12.70000000
  100.08900000   -51.50920000    11.40000000
  100.08970000   -51.48950000    11.20000000
  100.09040000   -51.46990000    10.90000000
  100.09110000   -51.45020000    10.70000000
  100.09180000   -51.43050000     9.40000000
  100.09250000   -51.41090000    12.20000000
  100.09420000   -51.37150000    13.80000000
  100.09590000   -51.35170000    13.60000000
  100.09770000   -51.33190000    12.40000000
