  106.10279000   -29.75291000    16.10000000
  106.10596000   -29.75375000    16.10000000
  106.10907000   -29.75452000    16.20000000
  106.11211000   -29.75536000    16.20000000
  106.11522000   -29.75618000    16.20000000
  106.11839000   -29.75701000    16.20000000
  106.12162000   -29.75784000    15.90000000
  106.12477000   -29.75864000    15.40000000
  106.12790000   -29.75944000    14.80000000
  106.13109000   -29.76029000    14.60000000
  106.13427000   -29.76112000    14.80000000
  106.13745000   -29.76189000    14.60000000
  106.14052000   -29.76269000    14.70000000
  106.14359000   -29.76346000    15.10000000
  106.14673000   -29.76425000    15.20000000
  106.14982000   -29.76515000    14.80000000
  106.15296000   -29.76598000    14.60000000
  106.15617000   -29.76684000    14.20000000
  106.15936000   -29.76763000    14.10000000
  106.16253000   -29.76845000    14.10000000
  106.16571000   -29.76927000    14.60000000
  106.16884000   -29.77008000    15.00000000
  106.17198000   -29.77091000    15.00000000
  106.17525000   -29.77176000    15.00000000
  106.17847000   -29.77261000    15.20000000
  106.18161000   -29.77339000    15.40000000
  106.18478000   -29.77416000    15.80000000
  106.18786000   -29.77498000    15.90000000
  106.19100000   -29.77581000    15.90000000
  106.19422000   -29.77665000    15.70000000
  106.19742000   -29.77744000    15.70000000
  106.20058000   -29.77828000    15.50000000
  106.20377000   -29.77910000    15.90000000
  106.20688000   -29.77987000    16.20000000
  106.21000000   -29.78071000    16.20000000
  106.21310000   -29.78153000    16.20000000
  106.21624000   -29.78239000    16.50000000
  106.21944000   -29.78317000    16.40000000
  106.22264000   -29.78398000    16.30000000
  106.22584000   -29.78483000    16.40000000
  106.22908000   -29.78567000    16.80000000
  106.23229000   -29.78647000    17.00000000
  106.23550000   -29.78735000    16.90000000
  106.23874000   -29.78820000    17.00000000
  106.24196000   -29.78903000    17.20000000
  106.24519000   -29.78984000    17.40000000
  106.24834000   -29.79066000    17.20000000
  106.25155000   -29.79146000    17.20000000
  106.25474000   -29.79230000    17.60000000
  106.25787000   -29.79315000    18.00000000
  106.26099000   -29.79390000    18.60000000
  106.26410000   -29.79474000    20.10000000
  106.26731000   -29.79566000    27.50000000
  106.27054000   -29.79648000    29.40000000
  106.27369000   -29.79730000    29.60000000
  106.27686000   -29.79811000    31.40000000
  106.28007000   -29.79897000    31.40000000
  106.38184000   -29.82539000    26.30000000
  106.38508000   -29.82626000    26.40000000
  106.38831000   -29.82706000    26.70000000
  106.39150000   -29.82790000    27.50000000
  106.39468000   -29.82873000    27.70000000
  106.39785000   -29.82958000    28.10000000
  106.40103000   -29.83038000    28.10000000
  106.40424000   -29.83117000    27.90000000
  106.40741000   -29.83202000    27.70000000
  106.41059000   -29.83284000    28.00000000
  106.41380000   -29.83367000    28.60000000
  106.41695000   -29.83445000    28.70000000
  106.42007000   -29.83526000    29.10000000
  106.42327000   -29.83609000    29.20000000
  106.42646000   -29.83694000    29.20000000
  106.42967000   -29.83776000    28.90000000
  106.43283000   -29.83858000    28.80000000
  106.43604000   -29.83946000    28.90000000
  106.43930000   -29.84026000    29.00000000
  106.44248000   -29.84108000    29.10000000
  106.44567000   -29.84192000    29.40000000
  106.44886000   -29.84278000    29.70000000
  106.45210000   -29.84355000    29.80000000
  106.45528000   -29.84437000    30.20000000
  106.45845000   -29.84517000    30.60000000
  106.46164000   -29.84600000    31.30000000
  106.46484000   -29.84682000    31.80000000
  106.46801000   -29.84763000    31.90000000
  106.47119000   -29.84845000    32.20000000
  106.47433000   -29.84919000    32.60000000
  106.47740000   -29.84998000    33.00000000
  106.48050000   -29.85079000    33.20000000
  106.48357000   -29.85168000    33.80000000
  106.48673000   -29.85254000    33.80000000
  106.48989000   -29.85338000    33.90000000
  106.49308000   -29.85419000    33.90000000
  106.49621000   -29.85500000    34.70000000
  106.49937000   -29.85584000    35.60000000
  106.50254000   -29.85664000    36.30000000
  106.50561000   -29.85748000    37.00000000
  106.50874000   -29.85825000    37.30000000
  106.51183000   -29.85903000    37.90000000
  106.51495000   -29.85991000    38.40000000
  106.51814000   -29.86072000    38.70000000
  106.52127000   -29.86144000    39.40000000
  106.52445000   -29.86227000    39.60000000
  106.52764000   -29.86312000    39.90000000
  106.53082000   -29.86394000    40.00000000
  106.53403000   -29.86475000    40.50000000
  106.53723000   -29.86562000    40.90000000
  106.54042000   -29.86648000    41.50000000
  106.54356000   -29.86730000    42.00000000
  106.54664000   -29.86809000    42.30000000
  106.54982000   -29.86888000    42.30000000
  106.55297000   -29.86971000    42.40000000
  106.55613000   -29.87050000    43.10000000
  106.55922000   -29.87126000    44.30000000
  106.56228000   -29.87195000    45.40000000
  106.56523000   -29.87269000    45.30000000
  106.56834000   -29.87213000    43.90000000
  106.57159000   -29.87124000    41.60000000
  106.57478000   -29.87031000    39.70000000
  106.57800000   -29.86937000    38.60000000
  106.58126000   -29.86840000    39.90000000
  106.58454000   -29.86742000    41.20000000
  106.58773000   -29.86743000    41.30000000
  106.59055000   -29.86874000    40.20000000
  106.59333000   -29.87007000    38.60000000
  106.59617000   -29.87135000    36.70000000
  106.59903000   -29.87268000    35.00000000
  106.60187000   -29.87402000    33.80000000
  106.60470000   -29.87536000    33.30000000
  106.60745000   -29.87667000    32.80000000
  106.61025000   -29.87804000    32.40000000
  106.61308000   -29.87939000    31.50000000
  106.61591000   -29.88078000    30.80000000
  106.61874000   -29.88212000    30.10000000
  106.62154000   -29.88349000    29.80000000
  106.62437000   -29.88484000    29.40000000
  106.62715000   -29.88618000    29.10000000
  106.62985000   -29.88751000    28.80000000
  106.63256000   -29.88879000    28.90000000
  106.63525000   -29.89003000    29.00000000
  106.63802000   -29.89141000    28.10000000
  106.64089000   -29.89256000    26.40000000
  106.64397000   -29.89329000    24.50000000
  106.64712000   -29.89402000    23.80000000
  106.65031000   -29.89478000    23.80000000
  106.65353000   -29.89560000    24.00000000
  106.65672000   -29.89632000    24.30000000
  106.65977000   -29.89718000    24.40000000
  106.66280000   -29.89794000    24.40000000
  106.66581000   -29.89879000    24.10000000
  106.66888000   -29.89962000    23.20000000
  106.67200000   -29.90040000    22.50000000
  106.67510000   -29.90115000    22.30000000
  106.67817000   -29.90200000    21.80000000
  106.68118000   -29.90279000    21.40000000
  106.68428000   -29.90368000    21.00000000
  106.68742000   -29.90452000    20.90000000
  106.69055000   -29.90534000    20.80000000
  106.69368000   -29.90612000    20.80000000
  106.69676000   -29.90693000    21.00000000
  106.69990000   -29.90767000    21.00000000
  106.70297000   -29.90847000    21.00000000
  106.70608000   -29.90923000    20.90000000
  106.70916000   -29.91004000    20.60000000
  106.71233000   -29.91087000    20.60000000
  106.71553000   -29.91167000    20.30000000
  106.71867000   -29.91248000    20.40000000
  106.72179000   -29.91326000    20.50000000
  106.72490000   -29.91415000    20.90000000
  106.72796000   -29.91497000    21.20000000
  106.73107000   -29.91573000    21.10000000
  106.73413000   -29.91647000    21.20000000
  106.73717000   -29.91724000    21.20000000
  106.74019000   -29.91809000    21.30000000
  106.74327000   -29.91889000    21.50000000
  106.74636000   -29.91965000    21.40000000
  106.74936000   -29.92047000    21.40000000
  106.75241000   -29.92125000    21.20000000
  106.75554000   -29.92197000    21.00000000
  106.75857000   -29.92284000    20.80000000
  106.76166000   -29.92367000    20.80000000
  106.76478000   -29.92453000    20.80000000
  106.76791000   -29.92535000    20.90000000
  106.77103000   -29.92615000    20.70000000
  106.77419000   -29.92703000    20.90000000
  106.77739000   -29.92782000    20.90000000
  106.78057000   -29.92868000    21.20000000
  106.78369000   -29.92946000    21.60000000
  106.78684000   -29.93026000    21.90000000
  106.78999000   -29.93107000    22.20000000
  106.79310000   -29.93194000    22.30000000
  106.79631000   -29.93271000    22.10000000
  106.79949000   -29.93353000    21.80000000
  106.80267000   -29.93433000    21.60000000
  106.80580000   -29.93511000    21.60000000
  106.80892000   -29.93591000    21.80000000
  106.81209000   -29.93670000    21.60000000
  106.81525000   -29.93758000    21.70000000
  106.81843000   -29.93836000    21.80000000
  106.82162000   -29.93921000    22.30000000
  106.82480000   -29.94001000    22.40000000
  106.82794000   -29.94082000    22.50000000
  106.83109000   -29.94160000    22.90000000
  106.83427000   -29.94238000    22.90000000
  106.83741000   -29.94323000    22.70000000
  106.84057000   -29.94403000    22.30000000
  106.84378000   -29.94487000    22.20000000
  106.84693000   -29.94568000    22.20000000
  106.85007000   -29.94649000    21.90000000
  106.85319000   -29.94732000    21.90000000
  106.85634000   -29.94808000    22.20000000
  106.85946000   -29.94894000    22.40000000
  106.86258000   -29.94974000    22.20000000
  106.86566000   -29.95053000    22.10000000
  106.86881000   -29.95138000    22.20000000
  106.87197000   -29.95210000    22.10000000
  106.87494000   -29.95283000    22.00000000
  106.87792000   -29.95373000    21.60000000
  106.88097000   -29.95459000    21.50000000
  106.88409000   -29.95545000    20.80000000
  106.88727000   -29.95628000    20.60000000
  106.89046000   -29.95713000    20.90000000
  106.89371000   -29.95792000    21.20000000
  106.89690000   -29.95876000    21.60000000
  106.90014000   -29.95961000    21.60000000
  106.90333000   -29.96038000    22.00000000
  106.90651000   -29.96123000    22.00000000
  106.90965000   -29.96204000    22.10000000
  106.91277000   -29.96285000    21.80000000
  106.91593000   -29.96368000    22.00000000
  106.91908000   -29.96447000    21.70000000
  106.92225000   -29.96528000    21.40000000
  106.92542000   -29.96603000    21.30000000
  106.92861000   -29.96687000    21.50000000
  106.93180000   -29.96772000    21.60000000
  106.93497000   -29.96853000    21.70000000
  106.93810000   -29.96921000    21.60000000
  106.94120000   -29.97011000    21.70000000
  106.94430000   -29.97094000    21.20000000
  106.94750000   -29.97174000    20.90000000
  106.95071000   -29.97261000    20.60000000
  106.95395000   -29.97347000    20.40000000
  106.95716000   -29.97433000    20.50000000
  106.96036000   -29.97514000    20.50000000
  106.96356000   -29.97599000    20.40000000
  106.96678000   -29.97679000    20.30000000
  106.97006000   -29.97760000    19.90000000
  106.97329000   -29.97841000    19.80000000
  106.97654000   -29.97925000    20.10000000
  106.97975000   -29.98011000    17.00000000
  106.98302000   -29.98094000    20.80000000
  106.98629000   -29.98177000    21.10000000
  106.98949000   -29.98256000    20.70000000
  106.99265000   -29.98335000    21.50000000
  106.99581000   -29.98420000    20.00000000
  106.99894000   -29.98502000    19.60000000
  107.00215000   -29.98586000    19.50000000
  107.00535000   -29.98668000    19.00000000
  107.00861000   -29.98752000    19.20000000
  107.01182000   -29.98833000    19.60000000
  107.01501000   -29.98918000    19.20000000
  107.01816000   -29.98999000    23.40000000
  107.02135000   -29.99077000    17.50000000
  107.02447000   -29.99162000    16.60000000
  107.02765000   -29.99242000    18.20000000
  107.03086000   -29.99333000    20.80000000
  107.03408000   -29.99417000    16.90000000
  107.03724000   -29.99497000    17.70000000
  107.04048000   -29.99583000    19.50000000
  107.04376000   -29.99669000    18.50000000
  107.04703000   -29.99757000    18.40000000
  107.05025000   -29.99843000    14.40000000
  107.05350000   -29.99931000    19.10000000
  107.05674000   -30.00007000    15.50000000
  107.06002000   -30.00093000    13.10000000
  107.06329000   -30.00178000    19.80000000
  107.06659000   -30.00267000    17.80000000
  107.06996000   -30.00354000    16.80000000
  107.07334000   -30.00438000    18.60000000
  107.07669000   -30.00524000    17.00000000
  107.08000000   -30.00606000    21.20000000
  107.08328000   -30.00690000    18.90000000
  107.08654000   -30.00774000    15.10000000
  107.08987000   -30.00864000    12.80000000
  107.09320000   -30.00944000    18.40000000
  107.09640000   -30.01026000    13.10000000
  107.09968000   -30.01105000    14.80000000
  107.10293000   -30.01191000    16.50000000
  107.10619000   -30.01272000    17.30000000
  107.10940000   -30.01354000    18.50000000
  107.11257000   -30.01444000     7.60000000
  107.11579000   -30.01522000    18.80000000
  107.11897000   -30.01605000    18.20000000
  107.12217000   -30.01692000    16.20000000
  107.12538000   -30.01771000    15.90000000
  107.12859000   -30.01857000    15.90000000
  107.13187000   -30.01949000    15.60000000
  107.13514000   -30.02035000    15.70000000
  107.13840000   -30.02123000    15.80000000
  107.14164000   -30.02202000    15.90000000
  107.14484000   -30.02286000    15.90000000
  107.14809000   -30.02370000    15.80000000
  107.15132000   -30.02453000    15.80000000
  107.15453000   -30.02529000    15.50000000
  107.15773000   -30.02609000    15.40000000
  107.16096000   -30.02693000    15.90000000
  107.16415000   -30.02774000    16.20000000
  107.16724000   -30.02848000    16.80000000
  107.17029000   -30.02936000    17.00000000
  107.17346000   -30.03014000    16.70000000
  107.17660000   -30.03099000    16.50000000
  107.17978000   -30.03181000    16.30000000
  107.18296000   -30.03263000    16.30000000
  107.18611000   -30.03345000    16.30000000
  107.18928000   -30.03427000    16.30000000
  107.19241000   -30.03514000    16.10000000
  107.19551000   -30.03586000    15.70000000
  107.19863000   -30.03670000    15.50000000
  107.20179000   -30.03754000    15.40000000
  107.20498000   -30.03841000    15.40000000
  107.20816000   -30.03920000    15.60000000
  107.21129000   -30.04000000    15.90000000
  107.21445000   -30.04080000    15.90000000
  107.21766000   -30.04165000    16.10000000
  107.22089000   -30.04240000    16.10000000
  107.22407000   -30.04326000    16.00000000
  107.22724000   -30.04406000    16.10000000
  107.23045000   -30.04490000    16.10000000
  107.23374000   -30.04577000    16.10000000
  107.23700000   -30.04660000    16.10000000
  107.24026000   -30.04744000    15.90000000
  107.24350000   -30.04822000    15.80000000
  107.24667000   -30.04908000    15.70000000
  107.24995000   -30.04996000    15.30000000
  107.25322000   -30.05077000    15.00000000
  107.25645000   -30.05164000    14.80000000
  107.25972000   -30.05249000    14.90000000
  107.26298000   -30.05334000    15.10000000
  107.26624000   -30.05419000    14.90000000
  107.26951000   -30.05507000    14.90000000
  107.27282000   -30.05588000    15.10000000
  107.27611000   -30.05680000    15.10000000
  107.27938000   -30.05767000    15.00000000
  107.28266000   -30.05853000    15.20000000
  107.28603000   -30.05938000    15.50000000
  107.28933000   -30.06023000    15.50000000
  107.29262000   -30.06108000    15.30000000
  107.29594000   -30.06187000    15.30000000
  107.29924000   -30.06271000    15.50000000
  107.30248000   -30.06347000    15.40000000
  107.30567000   -30.06431000    15.80000000
  107.30884000   -30.06513000    15.70000000
  107.31203000   -30.06597000    15.30000000
  107.31522000   -30.06675000    15.20000000
  107.31841000   -30.06760000    15.10000000
  107.32162000   -30.06844000    15.50000000
  107.32475000   -30.06928000    15.40000000
  107.32797000   -30.07007000    15.30000000
  107.33110000   -30.07093000    15.20000000
  107.33428000   -30.07177000    14.90000000
  107.33751000   -30.07254000    14.70000000
  107.34068000   -30.07338000    14.80000000
  107.34388000   -30.07422000    14.90000000
  107.34706000   -30.07506000    14.80000000
  107.35030000   -30.07595000    14.60000000
  107.35356000   -30.07682000    14.60000000
  107.35683000   -30.07773000    14.40000000
  107.36013000   -30.07860000    14.50000000
  107.36347000   -30.07943000    14.60000000
  107.36681000   -30.08024000    14.70000000
  107.37014000   -30.08119000    14.70000000
  107.37352000   -30.08201000    14.60000000
  107.37690000   -30.08289000    14.50000000
  107.38032000   -30.08376000    14.60000000
  107.38375000   -30.08466000    14.80000000
  107.38716000   -30.08547000    15.00000000
  107.39051000   -30.08632000    15.00000000
  107.39393000   -30.08717000    14.90000000
  107.39738000   -30.08800000    14.60000000
  107.40079000   -30.08887000    14.40000000
  107.40416000   -30.08976000    14.50000000
  107.40752000   -30.09068000    14.60000000
  107.41092000   -30.09160000    14.50000000
  107.41435000   -30.09248000    14.30000000
  107.41779000   -30.09337000    14.40000000
  107.42122000   -30.09425000    14.40000000
  107.42462000   -30.09512000    14.60000000
  107.42805000   -30.09601000    14.80000000
  107.43152000   -30.09685000    14.80000000
  107.43497000   -30.09774000    14.70000000
  107.43839000   -30.09862000    14.90000000
  107.44181000   -30.09953000    14.90000000
  107.44526000   -30.10036000    15.00000000
  107.44864000   -30.10130000    15.20000000
  107.45209000   -30.10220000    14.90000000
  107.45555000   -30.10309000    14.90000000
  107.45903000   -30.10403000    14.80000000
  107.46255000   -30.10490000    14.90000000
  107.46605000   -30.10579000    15.10000000
  107.46948000   -30.10667000    15.10000000
  107.47294000   -30.10762000    15.10000000
  107.47643000   -30.10853000    15.10000000
  107.47991000   -30.10947000    15.00000000
  107.48335000   -30.11040000    15.10000000
  107.48683000   -30.11134000    15.20000000
  107.49039000   -30.11225000    15.20000000
  107.49398000   -30.11316000    15.40000000
  107.49752000   -30.11401000    15.60000000
  107.50099000   -30.11491000    15.80000000
  107.50446000   -30.11584000    16.00000000
  107.50796000   -30.11674000    15.90000000
  107.51143000   -30.11769000    15.90000000
  107.51493000   -30.11857000    15.80000000
  107.51844000   -30.11939000    15.90000000
  107.52185000   -30.12031000    16.00000000
  107.52529000   -30.12123000    15.90000000
  107.52875000   -30.12210000    16.10000000
  107.53219000   -30.12297000    15.90000000
  107.53560000   -30.12388000    15.50000000
  107.53903000   -30.12478000    15.40000000
  107.54250000   -30.12570000    15.20000000
  107.54596000   -30.12654000    15.00000000
  107.54936000   -30.12740000    14.70000000
  107.55283000   -30.12831000    14.40000000
  107.55633000   -30.12926000    14.00000000
  107.55986000   -30.13015000    13.70000000
  107.56335000   -30.13106000    13.40000000
  107.56681000   -30.13199000    13.40000000
  107.57032000   -30.13291000    13.20000000
  107.57390000   -30.13374000    12.90000000
  107.57737000   -30.13467000    13.10000000
  107.58079000   -30.13560000    13.30000000
  107.58422000   -30.13642000    13.10000000
  107.58756000   -30.13727000    13.00000000
  107.59093000   -30.13819000    12.70000000
  107.59427000   -30.13901000    12.20000000
  107.59754000   -30.13986000    11.70000000
  107.60094000   -30.14082000    11.20000000
  107.60442000   -30.14167000    11.00000000
  107.60791000   -30.14261000    11.00000000
  107.61142000   -30.14347000    11.20000000
  107.61487000   -30.14435000    11.70000000
  107.61830000   -30.14528000    11.90000000
  107.62170000   -30.14611000    11.80000000
  107.62516000   -30.14702000    11.40000000
  107.62866000   -30.14794000    11.00000000
  107.63211000   -30.14881000    11.00000000
  107.63555000   -30.14969000    10.90000000
  107.63906000   -30.15059000    11.00000000
  107.64250000   -30.15147000    10.90000000
  107.64594000   -30.15240000    11.10000000
  107.64939000   -30.15327000    11.00000000
  107.65279000   -30.15404000    10.90000000
  107.65613000   -30.15496000    10.80000000
  107.65950000   -30.15577000    10.60000000
  107.66282000   -30.15663000    10.60000000
  107.66605000   -30.15756000    10.40000000
  107.66938000   -30.15828000    10.30000000
  107.67270000   -30.15926000    10.40000000
  107.67607000   -30.16014000    10.40000000
  107.67940000   -30.16103000    10.00000000
  107.68278000   -30.16190000     9.90000000
  107.68616000   -30.16260000    10.10000000
  107.68945000   -30.16361000    10.60000000
  107.69269000   -30.16449000    10.00000000
  107.69595000   -30.16530000     9.80000000
  107.69927000   -30.16619000     9.40000000
  107.70264000   -30.16698000     8.90000000
  107.70598000   -30.16786000     8.40000000
  107.70930000   -30.16884000     8.50000000
  107.71262000   -30.16972000     8.80000000
  107.71595000   -30.17026000     8.90000000
  107.71917000   -30.17128000     9.10000000
  107.72247000   -30.17229000     8.90000000
  107.72578000   -30.17309000     8.70000000
  107.72903000   -30.17394000     8.50000000
  107.73228000   -30.17488000     8.60000000
  107.73558000   -30.17575000     8.90000000
  107.73896000   -30.17667000     8.80000000
  107.74228000   -30.17732000     8.40000000
  107.74567000   -30.17736000     8.80000000
  107.74900000   -30.17705000     9.30000000
  107.75223000   -30.17641000    10.10000000
  107.75534000   -30.17562000     9.30000000
  107.75864000   -30.17501000     8.90000000
  107.76194000   -30.17437000     8.30000000
  107.76535000   -30.17373000     7.60000000
  107.76863000   -30.17304000     7.30000000
  107.77207000   -30.17285000     7.10000000
  107.77560000   -30.17259000     7.60000000
  107.77897000   -30.17278000     8.50000000
  107.78221000   -30.17215000     9.20000000
  107.78532000   -30.17117000    10.30000000
  107.78870000   -30.17073000    10.10000000
  107.79193000   -30.17181000     9.60000000
  107.79474000   -30.17348000     9.10000000
  107.79751000   -30.17518000     8.40000000
  107.80028000   -30.17698000     7.90000000
  107.80317000   -30.17871000     6.80000000
  107.80599000   -30.18044000     5.80000000
  107.80874000   -30.18210000     5.50000000
  107.81151000   -30.18383000     5.00000000
  107.81435000   -30.18558000     4.30000000
  107.81717000   -30.18732000     3.90000000
  107.81999000   -30.18907000     4.50000000
  107.82281000   -30.19078000     4.70000000
  107.82556000   -30.19242000     5.10000000
  107.82840000   -30.19413000     4.90000000
  107.83141000   -30.19579000     4.50000000
  107.83445000   -30.19727000     3.90000000
  107.83754000   -30.19845000     3.80000000
  107.84054000   -30.19985000     4.40000000
  107.84363000   -30.20125000     5.00000000
  107.84672000   -30.20265000     5.30000000
  107.84991000   -30.20392000     5.20000000
  107.85316000   -30.20475000     5.10000000
  107.85642000   -30.20552000     5.30000000
  107.85969000   -30.20643000     5.20000000
  107.86294000   -30.20735000     5.30000000
  107.86622000   -30.20827000     5.70000000
  107.86945000   -30.20924000     5.70000000
  107.87264000   -30.20983000     5.80000000
  107.87570000   -30.21094000     5.80000000
  107.87862000   -30.21226000     5.90000000
  107.88152000   -30.21354000     5.80000000
  107.88445000   -30.21493000     5.70000000
  107.88743000   -30.21630000     5.50000000
  107.89035000   -30.21771000     5.20000000
  107.89331000   -30.21908000     5.10000000
  107.89629000   -30.22045000     5.60000000
  107.89922000   -30.22179000     6.10000000
  107.90211000   -30.22305000     6.00000000
  107.90510000   -30.22413000     6.00000000
  107.90833000   -30.22459000     4.80000000
  107.91156000   -30.22502000     4.80000000
  107.91474000   -30.22548000     5.00000000
  107.91789000   -30.22572000     5.00000000
  107.92096000   -30.22614000     5.10000000
  107.92418000   -30.22629000     5.00000000
  107.92742000   -30.22639000     4.60000000
  107.93064000   -30.22657000     5.00000000
  107.93379000   -30.22709000     5.10000000
  107.93697000   -30.22781000     4.90000000
  107.94021000   -30.22860000     4.70000000
  107.94346000   -30.22935000     4.50000000
  107.94673000   -30.23007000     4.60000000
  107.94982000   -30.23087000     4.40000000
  107.95305000   -30.23160000     4.20000000
  107.95633000   -30.23240000     4.10000000
  107.95959000   -30.23320000     3.50000000
  107.96284000   -30.23397000     3.40000000
  107.96605000   -30.23480000     3.80000000
  107.96925000   -30.23567000     3.50000000
  107.97250000   -30.23651000     3.10000000
  107.97572000   -30.23737000     2.80000000
  107.97901000   -30.23817000     2.90000000
  107.98227000   -30.23906000     2.90000000
  107.98551000   -30.23988000     2.70000000
  107.98868000   -30.24069000     2.70000000
  107.99194000   -30.24153000     2.80000000
  107.99515000   -30.24237000     2.50000000
  107.99836000   -30.24318000     2.30000000
  108.00164000   -30.24409000     2.40000000
  108.00501000   -30.24493000     2.40000000
  108.00831000   -30.24580000     2.10000000
  108.01164000   -30.24663000     2.20000000
  108.01498000   -30.24749000     2.10000000
  108.01832000   -30.24839000     1.90000000
  108.02167000   -30.24923000     1.80000000
  108.02497000   -30.25003000     1.80000000
  108.02820000   -30.25089000     1.60000000
  108.03149000   -30.25170000     1.30000000
  108.03477000   -30.25261000     0.90000000
  108.03811000   -30.25347000     0.60000000
  108.04138000   -30.25431000     0.60000000
  108.04468000   -30.25512000     0.60000000
  108.04796000   -30.25602000     0.40000000
  108.05126000   -30.25682000     0.30000000
  108.05450000   -30.25774000     0.20000000
  108.05777000   -30.25860000     0.20000000
  108.06430000   -30.26031000    -0.20000000
  108.06758000   -30.26114000    -0.70000000
  108.07079000   -30.26203000    -0.80000000
  108.07408000   -30.26290000    -0.70000000
  108.07735000   -30.26370000    -0.90000000
  108.08057000   -30.26450000    -0.70000000
  108.08382000   -30.26536000    -0.50000000
  108.08711000   -30.26620000    -0.20000000
  108.09035000   -30.26709000    -0.30000000
  108.09363000   -30.26785000    -0.60000000
  108.09687000   -30.26876000    -0.60000000
  108.10014000   -30.26956000    -0.90000000
  108.10337000   -30.27043000    -0.90000000
  108.10670000   -30.27129000    -0.50000000
  108.11003000   -30.27209000    -0.30000000
  108.11324000   -30.27294000    -0.10000000
  108.11648000   -30.27375000     0.20000000
  108.11976000   -30.27467000     0.40000000
  108.12304000   -30.27548000     0.50000000
  108.12625000   -30.27630000     0.70000000
  108.12948000   -30.27714000     1.00000000
  108.13275000   -30.27797000     1.00000000
  108.13607000   -30.27884000     1.10000000
  108.13940000   -30.27973000     0.90000000
  108.14280000   -30.28058000     0.90000000
  108.14614000   -30.28139000     1.30000000
  108.14951000   -30.28225000     1.50000000
  108.15282000   -30.28312000     1.40000000
  108.15606000   -30.28395000     1.60000000
  108.15937000   -30.28483000     1.50000000
  108.16270000   -30.28568000     1.70000000
  108.16602000   -30.28660000     1.60000000
  108.16935000   -30.28744000     1.60000000
  108.17258000   -30.28824000     1.80000000
  108.17586000   -30.28913000     1.90000000
  108.17916000   -30.28997000     1.30000000
  108.18246000   -30.29086000     1.10000000
  108.18577000   -30.29167000     0.90000000
  108.18909000   -30.29252000     1.10000000
  108.19241000   -30.29337000     1.10000000
  108.19568000   -30.29421000     1.00000000
  108.19898000   -30.29502000     1.00000000
  108.20233000   -30.29591000     1.00000000
  108.20571000   -30.29678000     0.80000000
  108.20906000   -30.29762000     0.70000000
  108.21237000   -30.29842000     0.70000000
  108.21569000   -30.29924000     0.50000000
  108.22247000   -30.30099000    -0.30000000
  108.22584000   -30.30192000    -0.30000000
  108.22919000   -30.30277000    -0.30000000
  108.23254000   -30.30361000    -0.20000000
  108.23581000   -30.30452000    -0.10000000
  108.23910000   -30.30535000    -0.50000000
  108.24237000   -30.30614000    -1.00000000
  108.24570000   -30.30707000    -1.10000000
  108.24906000   -30.30798000    -1.30000000
  108.25236000   -30.30881000    -1.00000000
  108.25560000   -30.30968000    -0.90000000
  108.25889000   -30.31058000    -0.40000000
  108.26222000   -30.31137000    -0.90000000
  108.26552000   -30.31225000    -1.00000000
  108.26878000   -30.31308000    -0.60000000
  108.27211000   -30.31391000    -0.50000000
  108.27538000   -30.31475000    -0.90000000
  108.27870000   -30.31556000    -1.50000000
  108.28202000   -30.31644000    -1.80000000
  108.28539000   -30.31725000    -1.70000000
  108.28870000   -30.31804000    -1.50000000
  108.29200000   -30.31896000    -1.10000000
  108.29529000   -30.31980000    -0.90000000
  108.29858000   -30.32064000    -0.90000000
  108.30187000   -30.32150000    -1.10000000
  108.30526000   -30.32238000    -1.00000000
  108.30860000   -30.32327000    -1.00000000
  108.31188000   -30.32402000    -1.00000000
  108.31510000   -30.32489000    -1.00000000
  108.31840000   -30.32575000    -0.90000000
  108.32170000   -30.32644000    -0.40000000
  108.32494000   -30.32738000    -0.30000000
  108.32815000   -30.32833000    -0.10000000
  108.33131000   -30.32892000     0.40000000
  108.33448000   -30.32981000     0.50000000
  108.33765000   -30.33076000     0.10000000
  108.34089000   -30.33167000    -1.30000000
  108.34420000   -30.33256000    -6.00000000
  108.34754000   -30.33345000   -10.40000000
  108.35083000   -30.33412000    -4.30000000
  108.35353000   -30.33474000     5.90000000
  108.35469000   -30.33574000    12.80000000
  108.35479000   -30.33650000    20.50000000
  108.35466000   -30.33715000    16.30000000
  108.35424000   -30.33748000    10.10000000
  108.35374000   -30.33791000     4.50000000
  108.35322000   -30.33842000     1.10000000
  108.35264000   -30.33889000     0.30000000
  108.35220000   -30.33938000    -0.60000000
  108.35169000   -30.33979000    -1.10000000
  108.35116000   -30.34029000    -1.30000000
  108.35070000   -30.34073000    -1.50000000
  108.35020000   -30.34113000    -1.10000000
  108.34977000   -30.34155000    -1.20000000
  108.34937000   -30.34197000    -1.10000000
  108.34890000   -30.34240000    -0.70000000
  108.34845000   -30.34284000    -0.20000000
  108.34792000   -30.34334000     0.10000000
  108.34737000   -30.34390000     0.10000000
  108.34683000   -30.34439000    -0.50000000
  108.34636000   -30.34479000    -1.30000000
  108.34604000   -30.34497000    -1.90000000
  108.34571000   -30.34509000    -1.90000000
  108.34535000   -30.34528000    -1.30000000
  108.34491000   -30.34550000    -1.00000000
  108.34451000   -30.34581000    -0.40000000
  108.34413000   -30.34610000    -0.30000000
  108.34377000   -30.34635000    -1.20000000
  108.34344000   -30.34658000    -2.10000000
  108.34337000   -30.34670000    -2.20000000
  108.34337000   -30.34681000    -2.00000000
  108.34325000   -30.34683000    -1.60000000
  108.34294000   -30.34699000    -1.10000000
  108.34279000   -30.34735000    -0.40000000
  108.34259000   -30.34769000    -0.30000000
  108.34231000   -30.34799000    -0.30000000
  108.34203000   -30.34816000    -0.40000000
  108.34184000   -30.34833000    -0.60000000
  108.34173000   -30.34847000    -1.50000000
  108.34170000   -30.34864000    -1.80000000
  108.34168000   -30.34887000    -1.40000000
  108.34157000   -30.34906000    -0.90000000
  108.34133000   -30.34931000    -0.50000000
  108.34105000   -30.34965000    -0.20000000
  108.34089000   -30.35009000    -0.50000000
  108.34072000   -30.35048000    -1.00000000
  108.34057000   -30.35069000    -1.70000000
  108.34048000   -30.35100000    -1.50000000
  108.34039000   -30.35129000    -1.10000000
  108.34027000   -30.35152000    -0.90000000
  108.34007000   -30.35174000    -0.50000000
  108.33996000   -30.35204000    -0.50000000
  108.33987000   -30.35234000    -1.20000000
  108.33983000   -30.35247000    -1.20000000
  108.33993000   -30.35273000    -1.60000000
  108.33991000   -30.35304000    -0.60000000
  108.33966000   -30.35328000     0.10000000
  108.33949000   -30.35363000     0.50000000
  108.33919000   -30.35392000     0.20000000
  108.33902000   -30.35419000    -0.70000000
  108.33900000   -30.35442000    -1.30000000
  108.33893000   -30.35477000    -1.40000000
  108.33880000   -30.35510000    -1.20000000
  108.33868000   -30.35544000    -0.80000000
  108.33853000   -30.35573000    -0.60000000
  108.33836000   -30.35606000    -0.80000000
  108.33829000   -30.35636000    -1.00000000
  108.33815000   -30.35660000    -1.20000000
  108.33801000   -30.35686000    -1.40000000
  108.33794000   -30.35715000    -1.60000000
  108.33787000   -30.35744000    -1.20000000
  108.33773000   -30.35780000    -1.00000000
  108.33758000   -30.35824000    -1.00000000
  108.33740000   -30.35864000    -0.90000000
  108.33730000   -30.35900000    -1.10000000
  108.33725000   -30.35928000    -1.30000000
  108.33705000   -30.35960000    -1.40000000
  108.33690000   -30.35995000    -1.30000000
  108.33680000   -30.36018000    -1.10000000
  108.33671000   -30.36041000    -1.10000000
  108.33661000   -30.36061000    -1.60000000
  108.33655000   -30.36081000    -1.60000000
  108.33651000   -30.36091000    -1.70000000
  108.33649000   -30.36100000    -1.80000000
  108.33640000   -30.36106000    -1.00000000
  108.33629000   -30.36122000    -0.10000000
  108.33583000   -30.36137000    -0.20000000
  108.33559000   -30.36132000    -0.30000000
  108.33550000   -30.36136000    -0.70000000
  108.33527000   -30.36146000    -2.40000000
  108.33513000   -30.36163000    -2.20000000
  108.33519000   -30.36195000    -1.40000000
  108.33499000   -30.36212000    -0.10000000
  108.33426000   -30.36229000     0.30000000
  108.33394000   -30.36263000     0.30000000
  108.33368000   -30.36287000    -0.40000000
  108.33351000   -30.36313000    -2.00000000
  108.33336000   -30.36345000    -2.80000000
  108.33329000   -30.36377000    -1.80000000
  108.33332000   -30.36405000    -1.60000000
  108.33328000   -30.36429000    -1.60000000
  108.33328000   -30.36440000    -1.20000000
  108.33341000   -30.36449000    -1.00000000
  108.33353000   -30.36456000    -1.00000000
  108.33360000   -30.36464000    -1.20000000
  108.33377000   -30.36469000    -1.00000000
  108.33394000   -30.36473000    -0.40000000
  108.33401000   -30.36479000    -0.30000000
  108.33394000   -30.36490000    -0.40000000
  108.33388000   -30.36501000    -0.80000000
  108.33392000   -30.36505000    -1.30000000
  108.33389000   -30.36511000    -1.80000000
  108.33383000   -30.36523000    -1.60000000
  108.33376000   -30.36536000    -1.00000000
  108.33359000   -30.36551000    -0.10000000
  108.33333000   -30.36572000    -0.10000000
  108.33310000   -30.36599000    -0.10000000
  108.33280000   -30.36641000    -0.40000000
  108.33252000   -30.36680000    -1.00000000
  108.33219000   -30.36706000    -1.50000000
  108.33185000   -30.36729000    -0.80000000
  108.33148000   -30.36759000     2.20000000
  108.33112000   -30.36788000     5.00000000
  108.33063000   -30.36815000     4.00000000
  108.33074000   -30.36858000    -1.50000000
  108.33189000   -30.36856000    -5.20000000
  108.33369000   -30.36855000    -7.70000000
  108.33575000   -30.36858000    -8.80000000
  108.33815000   -30.36873000    -6.80000000
  108.34088000   -30.36890000    -4.60000000
  108.34380000   -30.36904000    -3.50000000
  108.34686000   -30.36918000    -3.20000000
  108.35012000   -30.36935000    -2.80000000
  108.35355000   -30.36951000    -2.70000000
  108.35708000   -30.36968000    -2.40000000
  108.36069000   -30.36985000    -2.00000000
  108.36432000   -30.37001000    -0.90000000
  108.36795000   -30.37021000    -0.40000000
  108.37506000   -30.37045000     0.20000000
  108.37861000   -30.37066000     0.10000000
  108.38221000   -30.37083000    -0.20000000
  108.38583000   -30.37100000    -0.50000000
  108.38949000   -30.37120000    -0.50000000
  108.39316000   -30.37134000    -1.10000000
  108.39679000   -30.37150000    -0.70000000
  108.40045000   -30.37167000    -0.20000000
  108.40409000   -30.37184000    -0.80000000
  108.40777000   -30.37201000    -0.40000000
  108.41142000   -30.37220000     0.20000000
  108.41506000   -30.37238000     0.70000000
  108.41836000   -30.37298000     0.50000000
  108.42199000   -30.37319000    -0.40000000
  108.42561000   -30.37333000    -1.10000000
  108.42925000   -30.37352000    -1.60000000
  108.43291000   -30.37371000    -2.10000000
  108.43658000   -30.37389000    -1.30000000
  108.44025000   -30.37407000    -1.40000000
  108.44395000   -30.37420000    -1.20000000
  108.44769000   -30.37439000    -1.00000000
  108.45144000   -30.37459000    -1.20000000
  108.45521000   -30.37476000    -1.00000000
  108.45897000   -30.37496000    -0.90000000
  108.46271000   -30.37515000    -1.00000000
  108.46644000   -30.37529000    -1.00000000
  108.47016000   -30.37549000    -1.20000000
  108.47389000   -30.37570000    -1.40000000
  108.47762000   -30.37590000    -1.50000000
  108.48132000   -30.37607000    -1.60000000
  108.48504000   -30.37627000    -1.50000000
  108.48877000   -30.37648000    -1.30000000
  108.49257000   -30.37667000    -0.90000000
  108.49631000   -30.37686000    -0.90000000
  108.50003000   -30.37712000    -0.60000000
  108.50378000   -30.37729000    -0.30000000
  108.50756000   -30.37749000    -0.30000000
  108.51127000   -30.37778000    -0.50000000
  108.51498000   -30.37815000    -0.50000000
  108.51869000   -30.37851000    -0.40000000
  108.52226000   -30.37924000     0.10000000
  108.52582000   -30.37981000     0.40000000
  108.52940000   -30.38048000     0.60000000
  108.53291000   -30.38109000     0.80000000
  108.53639000   -30.38181000     1.20000000
  108.53986000   -30.38262000     1.10000000
  108.54333000   -30.38350000     0.80000000
  108.54683000   -30.38447000     0.70000000
  108.55029000   -30.38534000     0.60000000
  108.55365000   -30.38624000     0.80000000
  108.55707000   -30.38715000     1.10000000
  108.56051000   -30.38809000     1.60000000
  108.56386000   -30.38899000     1.60000000
  108.56724000   -30.38989000     1.90000000
  108.57069000   -30.39077000     2.40000000
  108.57416000   -30.39166000     2.60000000
  108.57756000   -30.39252000     2.30000000
  108.58097000   -30.39340000     2.70000000
  108.58437000   -30.39428000     3.20000000
  108.58775000   -30.39520000     3.00000000
  108.59112000   -30.39607000     3.20000000
  108.59454000   -30.39699000     3.80000000
  108.59798000   -30.39791000     4.10000000
  108.60135000   -30.39878000     4.50000000
  108.60470000   -30.39967000     4.90000000
  108.60809000   -30.40053000     5.30000000
  108.61147000   -30.40140000     5.40000000
  108.61486000   -30.40229000     5.30000000
  108.61827000   -30.40314000     5.80000000
  108.62161000   -30.40400000     6.50000000
  108.62500000   -30.40483000     6.60000000
  108.62820000   -30.40590000     6.50000000
  108.63158000   -30.40669000     6.40000000
  108.63504000   -30.40736000     6.30000000
  108.63849000   -30.40814000     6.30000000
  108.64189000   -30.40903000     6.50000000
  108.64533000   -30.40991000     7.30000000
  108.64875000   -30.41080000     7.90000000
  108.65209000   -30.41172000     8.70000000
  108.65546000   -30.41254000     9.60000000
  108.65887000   -30.41262000    10.10000000
  108.66206000   -30.41192000     9.90000000
  108.66525000   -30.41081000    10.10000000
  108.66853000   -30.40971000    11.10000000
  108.67180000   -30.40898000    11.60000000
  108.67485000   -30.41016000    10.10000000
  108.67795000   -30.41150000     9.00000000
  108.68099000   -30.41282000     8.10000000
  108.68402000   -30.41414000     7.60000000
  108.68706000   -30.41548000     6.90000000
  108.69009000   -30.41682000     6.60000000
  108.69313000   -30.41817000     6.30000000
  108.69620000   -30.41949000     6.00000000
  108.69922000   -30.42086000     6.10000000
  108.70226000   -30.42221000     6.30000000
  108.70520000   -30.42347000     6.40000000
  108.70816000   -30.42482000     6.60000000
  108.71118000   -30.42619000     6.40000000
  108.71422000   -30.42753000     6.30000000
  108.71724000   -30.42885000     6.10000000
  108.72034000   -30.43026000     6.20000000
  108.72339000   -30.43163000     6.50000000
  108.72641000   -30.43302000     6.80000000
  108.72940000   -30.43434000     7.00000000
  108.73248000   -30.43539000     6.50000000
  108.73567000   -30.43626000     5.30000000
  108.73895000   -30.43694000     4.60000000
  108.74229000   -30.43755000     4.70000000
  108.74560000   -30.43815000     5.40000000
  108.74896000   -30.43875000     5.80000000
  108.75237000   -30.43939000     5.90000000
  108.75576000   -30.43959000     6.00000000
  108.75924000   -30.43987000     5.80000000
  108.76272000   -30.44038000     5.40000000
  108.76608000   -30.44107000     5.30000000
  108.76943000   -30.44180000     5.30000000
  108.77274000   -30.44255000     5.30000000
  108.77601000   -30.44342000     5.10000000
  108.77935000   -30.44432000     4.80000000
  108.78264000   -30.44522000     4.50000000
  108.78598000   -30.44610000     4.10000000
  108.78935000   -30.44700000     4.00000000
  108.79268000   -30.44785000     4.20000000
  108.79594000   -30.44877000     3.80000000
  108.79925000   -30.44963000     3.80000000
  108.80263000   -30.45043000     3.50000000
  108.80590000   -30.45136000     3.50000000
  108.80927000   -30.45219000     3.70000000
  108.81262000   -30.45305000     3.80000000
  108.81593000   -30.45392000     3.60000000
  108.81928000   -30.45478000     3.30000000
  108.82267000   -30.45565000     3.40000000
  108.82606000   -30.45653000     3.40000000
  108.82943000   -30.45740000     3.30000000
  108.83281000   -30.45828000     3.80000000
  108.83620000   -30.45916000     3.70000000
  108.83961000   -30.46001000     3.10000000
  108.84299000   -30.46085000     3.40000000
  108.84636000   -30.46172000     5.20000000
  108.84972000   -30.46263000     7.60000000
  108.85273000   -30.46267000     7.30000000
  108.85577000   -30.46146000     6.10000000
  108.85886000   -30.45997000     5.00000000
  108.86196000   -30.45838000     4.10000000
  108.86500000   -30.45675000     3.20000000
  108.86805000   -30.45521000     2.70000000
  108.87119000   -30.45363000     3.00000000
  108.87437000   -30.45200000     2.90000000
  108.87754000   -30.45036000     2.80000000
  108.88048000   -30.44878000     2.70000000
  108.88354000   -30.44722000     2.80000000
  108.88659000   -30.44567000     2.10000000
  108.88968000   -30.44412000     1.80000000
  108.89278000   -30.44248000     1.60000000
  108.89591000   -30.44091000     1.70000000
  108.89904000   -30.43928000     2.20000000
  108.90220000   -30.43768000     2.50000000
  108.90535000   -30.43609000     5.10000000
  108.90840000   -30.43446000     7.90000000
  108.91158000   -30.43431000     8.20000000
  108.91443000   -30.43573000     6.30000000
  108.91736000   -30.43708000     4.20000000
  108.92029000   -30.43847000     2.90000000
  108.92322000   -30.43984000     2.50000000
  108.92613000   -30.44120000     1.70000000
  108.92904000   -30.44259000     1.70000000
  108.93206000   -30.44402000     1.50000000
  108.93506000   -30.44544000     1.30000000
  108.93804000   -30.44684000     1.30000000
  108.94105000   -30.44824000     1.40000000
  108.94404000   -30.44956000     1.60000000
  108.94707000   -30.45098000     1.60000000
  108.95009000   -30.45239000     1.70000000
  108.95311000   -30.45381000     1.80000000
  108.95616000   -30.45517000     1.70000000
  108.95915000   -30.45654000     1.90000000
  108.96214000   -30.45792000     1.80000000
  108.96517000   -30.45935000     1.70000000
  108.96818000   -30.46077000     1.80000000
  108.97121000   -30.46213000     1.80000000
  108.97414000   -30.46346000     1.70000000
  108.97713000   -30.46482000     1.40000000
  108.98011000   -30.46614000     1.60000000
  108.98308000   -30.46746000     2.00000000
  108.98600000   -30.46878000     2.00000000
  108.98895000   -30.47012000     1.80000000
  108.99188000   -30.47144000     2.20000000
  108.99494000   -30.47281000     2.00000000
  108.99791000   -30.47415000     1.60000000
  109.00081000   -30.47540000     1.60000000
  109.00377000   -30.47674000     1.70000000
  109.00675000   -30.47811000     1.60000000
  109.00971000   -30.47947000     1.40000000
  109.01265000   -30.48085000     1.60000000
  109.01568000   -30.48224000     1.90000000
  109.01868000   -30.48365000     2.10000000
  109.02170000   -30.48502000     2.50000000
  109.02462000   -30.48635000     2.60000000
  109.02762000   -30.48772000     2.40000000
  109.03065000   -30.48916000     2.10000000
  109.03369000   -30.49053000     2.00000000
  109.03666000   -30.49190000     2.20000000
  109.03961000   -30.49323000     2.60000000
  109.04258000   -30.49454000     2.90000000
  109.04556000   -30.49590000     2.60000000
  109.04857000   -30.49726000     2.60000000
  109.05157000   -30.49859000     2.40000000
  109.05455000   -30.49993000     2.60000000
  109.05751000   -30.50122000     2.50000000
  109.06054000   -30.50250000     2.40000000
  109.06346000   -30.50380000     2.60000000
  109.06646000   -30.50520000     2.70000000
  109.06939000   -30.50653000     3.00000000
  109.07238000   -30.50789000     3.20000000
  109.07531000   -30.50922000     3.40000000
  109.07824000   -30.51054000     3.80000000
  109.08112000   -30.51188000     3.90000000
  109.08406000   -30.51319000     3.90000000
  109.08696000   -30.51445000     3.90000000
  109.08994000   -30.51575000     4.00000000
  109.09289000   -30.51704000     3.70000000
  109.09580000   -30.51830000     3.90000000
  109.09878000   -30.51947000     3.60000000
  109.10171000   -30.52074000     3.90000000
  109.10462000   -30.52211000     3.50000000
  109.10753000   -30.52348000     3.50000000
  109.11042000   -30.52479000     4.10000000
  109.11326000   -30.52606000     4.40000000
  109.11613000   -30.52738000     4.00000000
  109.11908000   -30.52872000     3.60000000
  109.12211000   -30.52982000     3.30000000
  109.12505000   -30.53101000     3.40000000
  109.12797000   -30.53223000     4.00000000
  109.13091000   -30.53347000     4.60000000
  109.13381000   -30.53477000     4.70000000
  109.13681000   -30.53582000     4.40000000
  109.13996000   -30.53665000     4.20000000
  109.14312000   -30.53743000     3.90000000
  109.14631000   -30.53824000     3.90000000
  109.14954000   -30.53862000     4.20000000
  109.15277000   -30.53918000     4.10000000
  109.15592000   -30.54004000     4.00000000
  109.15902000   -30.54088000     4.30000000
  109.16207000   -30.54166000     4.50000000
  109.16511000   -30.54249000     4.70000000
  109.16816000   -30.54331000     4.60000000
  109.17123000   -30.54410000     4.30000000
  109.17422000   -30.54510000     4.90000000
  109.17722000   -30.54613000     5.70000000
  109.18021000   -30.54710000     6.70000000
  109.18316000   -30.54809000     6.90000000
  109.18626000   -30.54882000     6.20000000
  109.18946000   -30.54857000     5.40000000
  109.19266000   -30.54855000     5.30000000
  109.19596000   -30.54889000     5.60000000
  109.19911000   -30.54974000     5.80000000
  109.20217000   -30.55061000     5.80000000
  109.20514000   -30.55158000     5.90000000
  109.20815000   -30.55251000     5.60000000
  109.21110000   -30.55346000     5.00000000
  109.21406000   -30.55440000     4.70000000
