   61.69380000   -29.71480000   -29.30000000
   61.72800000   -29.74580000   -31.60000000
   61.76210000   -29.77690000   -30.60000000
   61.78490000   -29.79760000   -23.10000000
   61.83020000   -29.83980000   -31.30000000
   61.86420000   -29.87140000   -32.80000000
   61.89820000   -29.90310000   -20.40000000
   61.93220000   -29.93470000    -5.90000000
   61.96600000   -29.96620000     6.20000000
   61.99310000   -29.99130000    12.20000000
   62.03370000   -30.02910000    -6.90000000
   62.06750000   -30.06050000    -9.30000000
   62.10130000   -30.09200000    -0.40000000
   62.13520000   -30.12340000     1.80000000
   62.16900000   -30.15490000     5.10000000
   62.20280000   -30.18630000     7.10000000
   62.23660000   -30.21780000     1.20000000
   62.29080000   -30.26810000   -13.10000000
   62.33810000   -30.31210000     6.40000000
   62.37120000   -30.34280000    22.90000000
   62.40420000   -30.37340000    20.50000000
   62.43730000   -30.40410000    10.20000000
   62.47030000   -30.43480000     7.80000000
   62.50330000   -30.46540000     7.70000000
   62.53640000   -30.49610000     8.60000000
   62.56940000   -30.52680000    -4.20000000
   62.60250000   -30.55740000   -15.70000000
   62.63550000   -30.58810000   -24.80000000
   62.66850000   -30.61880000   -22.80000000
   62.70160000   -30.64940000   -10.40000000
   62.74540000   -30.69010000    -0.20000000
   62.76690000   -30.71000000    15.40000000
   62.79930000   -30.74000000    23.30000000
   62.82080000   -30.76000000    27.30000000
   62.86390000   -30.79990000     9.40000000
   62.89630000   -30.82990000    -5.50000000
   62.92860000   -30.85980000   -11.30000000
   62.96090000   -30.88980000   -25.00000000
   62.99320000   -30.91970000   -26.30000000
   63.02560000   -30.94970000   -27.40000000
   63.05720000   -30.97860000   -27.80000000
   63.09490000   -31.01280000   -23.80000000
   63.02060000   -30.97710000   -21.10000000
   63.04540000   -30.99990000   -20.60000000
   63.07010000   -31.02270000   -17.90000000
   63.09490000   -31.04540000   -16.30000000
   63.11960000   -31.06820000   -13.70000000
   63.14440000   -31.09100000   -14.30000000
   63.16910000   -31.11380000   -11.60000000
   63.19390000   -31.13660000   -12.30000000
   63.21860000   -31.15930000   -15.20000000
   63.24330000   -31.18210000   -18.10000000
   63.26810000   -31.20490000   -14.30000000
   63.29280000   -31.22770000   -11.60000000
   63.31720000   -31.25010000    -3.80000000
   63.34150000   -31.27240000     3.50000000
   63.36590000   -31.29480000     8.60000000
   63.39020000   -31.31720000    12.40000000
   63.41460000   -31.33960000    10.70000000
   63.43890000   -31.36200000    12.30000000
   63.48760000   -31.40680000    10.40000000
   63.51200000   -31.42910000     8.70000000
   63.53640000   -31.45150000     5.80000000
   63.56070000   -31.47390000     2.80000000
   63.58510000   -31.49630000     1.00000000
   63.60900000   -31.51830000    -2.50000000
   63.63440000   -31.54080000     1.80000000
   63.66050000   -31.56340000     4.60000000
   63.68660000   -31.58610000     7.50000000
   63.70420000   -31.60150000    10.40000000
   63.71970000   -31.61520000    11.70000000
   63.73520000   -31.62880000    12.80000000
   63.75060000   -31.64240000    13.90000000
   63.76510000   -31.65470000     8.40000000
   63.77880000   -31.66610000     6.40000000
   63.79250000   -31.67740000     4.40000000
   63.80630000   -31.68880000     3.30000000
   63.82000000   -31.70020000    -1.00000000
   63.83380000   -31.71160000    -6.60000000
   63.84750000   -31.72300000   -10.90000000
   63.86120000   -31.73440000   -11.80000000
   63.87750000   -31.74790000    -9.70000000
   63.89370000   -31.76140000    -9.60000000
   63.91000000   -31.77490000    -8.40000000
   63.92620000   -31.78840000    -5.00000000
   63.94250000   -31.80190000    -4.90000000
   63.95870000   -31.81540000    -1.40000000
   63.97500000   -31.82890000    -0.20000000
   63.99120000   -31.84240000    -3.60000000
   64.00750000   -31.85590000     1.00000000
   64.02370000   -31.86940000    -0.20000000
   64.03990000   -31.88290000     2.30000000
   64.05620000   -31.89640000     4.70000000
   64.07910000   -31.91550000     3.30000000
   64.10960000   -31.94110000     1.10000000
   64.14010000   -31.96670000     3.60000000
   64.17060000   -31.99220000     3.80000000
   64.20110000   -32.01780000     3.00000000
   64.23160000   -32.04330000     1.90000000
   64.26220000   -32.06890000    -5.90000000
   64.29270000   -32.09440000   -12.40000000
   64.32320000   -32.12000000   -15.80000000
   64.35370000   -32.14550000   -15.60000000
   64.38420000   -32.17110000    -8.40000000
   64.41470000   -32.19670000    -1.40000000
   64.44700000   -32.22360000     9.90000000
   64.47930000   -32.25060000    15.60000000
   64.51160000   -32.27760000    21.30000000
   64.54820000   -32.30810000    25.60000000
   64.57610000   -32.33150000    18.00000000
   64.60840000   -32.35850000    12.40000000
   64.64070000   -32.38550000    -3.50000000
   64.67300000   -32.41240000   -14.80000000
   64.70530000   -32.43940000   -22.60000000
   64.73760000   -32.46640000   -19.10000000
   64.76990000   -32.49330000    -6.60000000
   64.80220000   -32.52030000    -0.90000000
   64.83530000   -32.54800000     4.80000000
   64.86790000   -32.57580000     5.90000000
   64.90020000   -32.60370000     9.30000000
   64.93260000   -32.63160000    14.90000000
   64.96490000   -32.65950000    17.10000000
   64.99720000   -32.68750000    16.00000000
   65.02960000   -32.71540000     9.30000000
   65.06190000   -32.74330000    -4.60000000
   65.09500000   -32.77250000   -14.60000000
   65.12860000   -32.80250000   -14.80000000
   65.16210000   -32.83250000   -11.60000000
   65.19570000   -32.86250000    -7.30000000
   65.22960000   -32.89270000    -0.40000000
   65.26350000   -32.92300000     5.30000000
   65.34130000   -33.02750000     2.80000000
   65.34840000   -33.03520000     1.60000000
   65.35490000   -33.04250000    -3.60000000
   65.36150000   -33.04980000    -7.70000000
   65.39470000   -33.07940000     3.10000000
   65.42800000   -33.10900000     7.60000000
   65.46120000   -33.13850000     9.70000000
   65.49440000   -33.16810000     7.30000000
   65.52760000   -33.19770000    -9.10000000
   65.54980000   -33.21750000   -15.30000000
   65.56310000   -33.22930000   -15.10000000
   65.58970000   -33.25300000   -22.60000000
   65.62730000   -33.28650000   -14.10000000
   65.66060000   -33.31610000    -5.20000000
   65.69380000   -33.34570000    -3.00000000
   65.72750000   -33.37250000     0.90000000
   65.76120000   -33.39910000     3.30000000
   65.79490000   -33.42570000     2.30000000
   65.82940000   -33.45290000    -0.50000000
   65.86380000   -33.48010000    -1.50000000
   65.88220000   -33.49460000    -5.10000000
   65.90520000   -33.51280000    -4.30000000
   65.93270000   -33.53450000    -3.80000000
   65.98030000   -33.57630000    -2.30000000
   66.00070000   -33.59440000    -5.10000000
   66.03470000   -33.62450000    -1.80000000
   66.06860000   -33.65470000    -2.00000000
   66.10260000   -33.68480000    -4.60000000
   66.13650000   -33.71490000    -4.90000000
   66.17050000   -33.74510000    -4.00000000
   66.20450000   -33.77520000    -3.00000000
   66.23850000   -33.80530000    -1.10000000
   66.27260000   -33.83550000     3.30000000
   66.30670000   -33.86560000    -1.60000000
   66.34070000   -33.89570000     0.60000000
   66.37480000   -33.92590000    -2.00000000
   66.40890000   -33.95600000    -3.50000000
   66.44290000   -33.98610000     0.90000000
   66.47700000   -34.01630000     1.80000000
   66.51110000   -34.04640000    -1.90000000
   66.54510000   -34.07650000    -3.30000000
   66.57920000   -34.10670000    -0.20000000
   66.61330000   -34.13680000     0.90000000
   66.64780000   -34.16720000     3.10000000
   66.68230000   -34.19760000     4.00000000
   66.71680000   -34.22800000     0.40000000
   66.75130000   -34.25850000     2.30000000
   66.78580000   -34.28890000    -0.40000000
   66.79920000   -34.31500000    -4.00000000
   66.83360000   -34.34200000    -2.80000000
   66.86800000   -34.36890000    -4.00000000
   66.90230000   -34.39580000    -5.10000000
   66.92050000   -34.40780000    -8.20000000
   66.92450000   -34.40970000    -8.30000000
   66.92850000   -34.41150000    -7.30000000
   66.97550000   -34.44730000    -8.00000000
   67.01040000   -34.47460000    -5.70000000
   67.04530000   -34.50180000    -8.00000000
   67.08020000   -34.52910000    -9.20000000
   67.11510000   -34.55630000    -6.90000000
   67.15010000   -34.58350000    -7.00000000
   67.18500000   -34.61080000    -7.00000000
   67.21990000   -34.63800000    -8.10000000
   67.25480000   -34.66530000    -7.00000000
   67.28970000   -34.69250000    -7.00000000
   67.32460000   -34.71970000    -8.20000000
   67.35950000   -34.74700000    -7.10000000
   67.39440000   -34.77420000    -7.10000000
   67.42930000   -34.80150000    -7.10000000
   67.46420000   -34.82870000    -8.30000000
   67.49910000   -34.85590000    -9.40000000
   67.53400000   -34.88320000    -7.20000000
   67.58520000   -34.92310000    -8.30000000
   67.62120000   -34.92900000   -11.30000000
   67.65580000   -34.95680000   -12.40000000
   67.69040000   -34.98480000    -8.10000000
   67.72510000   -35.01330000    -7.10000000
   67.75970000   -35.04170000    -6.10000000
   67.79440000   -35.07010000    -6.20000000
   67.82910000   -35.09860000     0.70000000
   67.86370000   -35.12700000     2.80000000
   67.89840000   -35.15550000     1.40000000
   67.93310000   -35.18390000     0.20000000
   67.96800000   -35.21250000    -1.10000000
   68.00300000   -35.24110000    -7.00000000
   68.03790000   -35.26970000    -6.00000000
   68.07290000   -35.29820000    -7.30000000
   68.10780000   -35.32680000    -9.80000000
   68.14280000   -35.35540000   -17.80000000
   68.17770000   -35.38400000   -27.00000000
   68.21270000   -35.41250000   -24.90000000
   68.24760000   -35.44110000   -22.80000000
   68.28260000   -35.46970000   -19.50000000
   68.31750000   -35.49830000   -12.90000000
   68.35250000   -35.52690000    -8.60000000
   68.38500000   -35.55340000    -7.20000000
   68.41760000   -35.57990000    -4.90000000
   68.45020000   -35.60640000     2.00000000
   68.48270000   -35.63290000    -0.20000000
   68.51530000   -35.65940000    -1.40000000
   68.54780000   -35.68600000    -1.40000000
   68.58040000   -35.71250000    -6.00000000
   68.61300000   -35.73900000    -2.50000000
   68.64550000   -35.76550000     1.00000000
   68.67810000   -35.79200000    -0.20000000
   68.71060000   -35.81850000    -4.80000000
   68.74320000   -35.84510000    -6.00000000
   68.77660000   -35.87220000    -5.30000000
   68.80990000   -35.89930000    -5.30000000
   68.84330000   -35.92640000    -4.20000000
   68.87670000   -35.95350000    -3.00000000
   68.91010000   -35.98060000    -1.90000000
   68.94350000   -36.00770000    -3.10000000
   68.97700000   -36.03420000    -1.90000000
   69.01060000   -36.06030000    -3.00000000
   69.04410000   -36.08650000    -3.00000000
   69.07770000   -36.11260000    -3.00000000
   69.11130000   -36.13880000    -4.10000000
   69.14490000   -36.16490000    -1.80000000
   69.17860000   -36.19110000    -6.40000000
   69.21230000   -36.21730000    -7.50000000
   69.24600000   -36.24350000    -7.50000000
   69.27970000   -36.26960000    -7.50000000
   69.31340000   -36.29580000    -7.40000000
   69.34710000   -36.32200000   -11.90000000
   69.38080000   -36.34820000    -7.40000000
   69.41450000   -36.37440000    -4.00000000
   69.44760000   -36.40070000    -8.00000000
   69.47990000   -36.42730000    -8.10000000
   69.51220000   -36.45400000    -9.20000000
   69.54450000   -36.48060000    -5.80000000
   69.56750000   -36.50890000   -10.20000000
   69.59980000   -36.53550000    -9.10000000
   69.63220000   -36.56220000   -10.20000000
   69.66460000   -36.58880000   -11.40000000
   69.69690000   -36.61540000    -9.10000000
   69.72930000   -36.64200000    -3.50000000
   69.76170000   -36.66860000    -1.10000000
   69.79410000   -36.69520000     1.10000000
   69.83740000   -36.73080000     0.90000000
   69.85920000   -36.74870000     0.60000000
   69.89200000   -36.77560000     0.60000000
   69.92480000   -36.80240000    -0.70000000
   69.95750000   -36.82930000     1.50000000
   69.99030000   -36.85610000    -0.90000000
   70.02310000   -36.88300000    -7.80000000
   70.05790000   -36.90970000   -13.80000000
   70.09360000   -36.93630000   -17.10000000
   70.12920000   -36.96290000   -20.50000000
   70.16480000   -36.98950000   -12.70000000
   70.20040000   -37.01610000    -7.00000000
   70.23600000   -37.04270000    -5.90000000
   70.27110000   -37.06880000    -4.40000000
   70.30620000   -37.09490000    -3.30000000
   70.34120000   -37.12100000    -5.50000000
   70.37630000   -37.14710000    -5.50000000
   70.41140000   -37.17320000    -8.90000000
   70.44650000   -37.19930000   -10.10000000
   70.51660000   -37.25160000    -7.80000000
   70.55210000   -37.27700000    -3.60000000
   70.58780000   -37.30210000    -3.50000000
   70.62350000   -37.32710000    -9.20000000
   70.65930000   -37.35220000    -9.10000000
   70.69540000   -37.37750000    -9.90000000
   70.73160000   -37.40290000   -12.10000000
   70.76780000   -37.42820000   -10.90000000
   70.80400000   -37.45360000   -11.90000000
   70.84020000   -37.47890000   -14.10000000
   70.87640000   -37.50430000   -14.10000000
   70.91260000   -37.52960000   -12.80000000
   70.94880000   -37.55500000   -16.10000000
   71.77000000   -38.12080000   -24.30000000
   71.80280000   -38.14910000   -23.40000000
   71.83560000   -38.17750000   -23.60000000
   71.86840000   -38.20580000   -23.80000000
   71.90120000   -38.23410000   -19.40000000
   71.93430000   -38.26260000   -16.30000000
   71.96750000   -38.29110000   -15.40000000
   72.00060000   -38.31960000    -7.70000000
   72.03380000   -38.34800000    -6.80000000
   72.06690000   -38.37650000    -7.00000000
   72.13320000   -38.43350000    -2.50000000
   72.16640000   -38.46190000    -2.80000000
   72.19950000   -38.49040000    -7.60000000
   72.23270000   -38.51890000    -2.00000000
   72.26580000   -38.54730000    -3.50000000
   72.29890000   -38.57580000    -8.30000000
   72.33210000   -38.60430000    -6.20000000
   72.36520000   -38.63280000    -8.70000000
   72.39830000   -38.66090000    -8.70000000
   72.43080000   -38.68470000   -11.90000000
   72.46650000   -38.71120000    -4.10000000
   72.50210000   -38.73770000    -5.30000000
   72.53780000   -38.76430000    -5.30000000
   72.57350000   -38.79080000    -4.30000000
   72.60920000   -38.81730000    -3.10000000
   72.64480000   -38.84380000     0.40000000
   72.67780000   -38.87120000    -1.80000000
   72.71070000   -38.89850000    -1.90000000
   72.74370000   -38.92590000    -0.90000000
   72.77660000   -38.95330000    -1.10000000
   72.80990000   -38.97880000     0.40000000
   72.84320000   -39.00430000    -4.30000000
   72.87640000   -39.02980000    -3.00000000
   72.91220000   -39.05760000     0.70000000
   72.94820000   -39.08550000    -3.00000000
   72.98420000   -39.11340000    -3.10000000
   73.02020000   -39.14140000    -5.70000000
   73.05620000   -39.16930000    -4.70000000
   73.09220000   -39.19720000    -2.50000000
   73.12820000   -39.22520000    -0.60000000
   73.16420000   -39.25310000     0.60000000
   73.20010000   -39.28100000     5.00000000
   73.23610000   -39.30900000     8.20000000
   73.27210000   -39.33690000     6.90000000
   73.30810000   -39.36480000     6.70000000
   73.34410000   -39.39280000    -0.60000000
   73.38050000   -39.42080000    -7.60000000
   73.43140000   -39.46020000   -19.00000000
   73.45330000   -39.47700000   -15.90000000
   73.48970000   -39.50510000   -15.10000000
   73.52610000   -39.53320000    -7.30000000
   73.59160000   -39.58370000    -3.70000000
   73.63520000   -39.61740000    -9.10000000
   73.67160000   -39.64550000   -11.60000000
   73.70800000   -39.67360000    -9.40000000
   73.74440000   -39.70170000    -6.20000000
   73.78080000   -39.72980000   -11.10000000
   73.81720000   -39.75780000   -11.30000000
   73.85360000   -39.78590000   -10.30000000
   73.92640000   -39.84210000   -11.60000000
   73.96280000   -39.87000000   -11.10000000
   73.99920000   -39.89790000   -12.40000000
   74.03570000   -39.92580000    -9.20000000
   74.07210000   -39.95380000    -9.40000000
   74.10850000   -39.98170000    -7.30000000
   74.14490000   -40.00960000    -7.50000000
   74.18140000   -40.03750000    -6.60000000
   74.21780000   -40.06540000    -2.10000000
   74.25420000   -40.09330000    -1.20000000
   74.29060000   -40.12130000     0.90000000
   74.31250000   -40.13800000     0.60000000
   74.32710000   -40.14920000    -4.00000000
   74.36350000   -40.17710000    -9.90000000
   74.39990000   -40.20500000   -18.00000000
   74.42910000   -40.22740000   -29.10000000
   74.47280000   -40.26090000   -13.90000000
   74.50930000   -40.28830000    -3.60000000
   74.54610000   -40.31430000     4.40000000
   74.61750000   -40.30670000    -1.20000000
   74.63300000   -40.31570000    -0.90000000
   74.64720000   -40.32410000    -2.00000000
   74.66240000   -40.33300000    -2.80000000
   74.67770000   -40.34200000    -2.50000000
   74.76760000   -40.40360000     2.50000000
   74.80490000   -40.43000000     0.20000000
   74.84220000   -40.45630000    -1.10000000
   74.87950000   -40.48260000    -4.70000000
   74.91690000   -40.50900000    -7.00000000
   74.95420000   -40.53530000    -9.40000000
   74.99340000   -40.56300000    -5.50000000
   75.03260000   -40.59070000   -11.40000000
   75.07180000   -40.61850000   -16.10000000
   75.11110000   -40.64620000   -22.00000000
   75.15030000   -40.67390000   -26.80000000
   75.18950000   -40.70170000   -35.00000000
   75.22880000   -40.72970000   -37.50000000
   75.26820000   -40.75850000   -44.60000000
   75.29970000   -40.78140000   -42.10000000
   75.34700000   -40.81590000   -21.30000000
   75.38640000   -40.84460000     9.40000000
   75.42580000   -40.87340000     8.00000000
   75.46520000   -40.90210000     6.60000000
   75.50460000   -40.93070000     7.20000000
   75.54390000   -40.95870000     1.10000000
   75.58320000   -40.98670000    -0.20000000
   75.62210000   -41.01430000    -2.30000000
   75.66110000   -41.04190000    -4.80000000
   75.70010000   -41.06950000    -7.20000000
   75.73900000   -41.09710000    -7.40000000
   75.77800000   -41.12470000    -6.50000000
   75.81690000   -41.15230000    -6.60000000
   75.85590000   -41.17990000    -4.50000000
   75.89490000   -41.20750000    -2.50000000
   75.93380000   -41.23510000    -2.50000000
   75.97280000   -41.26270000    -1.60000000
   76.01170000   -41.29030000    -1.80000000
   76.05070000   -41.31790000    -2.00000000
   76.08970000   -41.34550000    -2.30000000
   76.12860000   -41.37310000    -2.30000000
   76.16760000   -41.40070000    -3.70000000
   76.20660000   -41.42830000    -0.50000000
   76.24650000   -41.45650000    -2.50000000
   76.28640000   -41.48460000    -2.80000000
   76.32640000   -41.51270000     1.60000000
   76.36630000   -41.54080000     0.20000000
   76.40620000   -41.56900000     1.10000000
   76.44620000   -41.59710000    -2.60000000
   76.48610000   -41.62520000    -0.60000000
   76.52600000   -41.65340000     0.50000000
   76.56600000   -41.68150000    -2.10000000
   76.60590000   -41.70960000    -0.20000000
   76.68580000   -41.76590000    -2.60000000
   76.72570000   -41.79400000    -1.80000000
   76.76570000   -41.82210000    -2.00000000
   76.80560000   -41.85020000    -1.10000000
   76.84550000   -41.87840000    -2.50000000
   76.88620000   -41.90680000    -0.40000000
   76.92680000   -41.93520000    -1.80000000
   76.96750000   -41.96360000     0.40000000
   77.00810000   -41.99210000    -2.30000000
   77.04870000   -42.02050000    -3.70000000
   77.08940000   -42.04890000    -0.60000000
   77.13000000   -42.07730000    -0.90000000
   77.17060000   -42.10580000     1.20000000
   77.21130000   -42.13420000     2.10000000
   77.25190000   -42.16260000     1.80000000
   77.29260000   -42.19100000     1.60000000
   77.33320000   -42.21950000     3.60000000
   77.37380000   -42.24790000     2.30000000
   77.41450000   -42.27630000    -1.50000000
   77.45510000   -42.30470000    -1.80000000
   77.49570000   -42.33320000    -6.70000000
   77.53310000   -42.35890000    -9.20000000
   77.57110000   -42.38540000   -11.80000000
   77.60950000   -42.41230000    -7.40000000
   77.64790000   -42.43920000    -4.10000000
   77.68630000   -42.46610000    -0.70000000
   77.72460000   -42.49300000    -2.00000000
   77.76300000   -42.51980000    -4.50000000
   77.80150000   -42.54810000    -7.00000000
   77.84040000   -42.58190000    -6.60000000
   77.87930000   -42.61570000    -5.10000000
   77.91820000   -42.64940000    -5.80000000
   77.95710000   -42.68320000    -4.30000000
   77.99600000   -42.71700000    -1.50000000
   78.04790000   -42.76200000    -5.70000000
   78.07380000   -42.78450000     1.50000000
   78.11270000   -42.81830000     0.90000000
   78.15160000   -42.85210000     1.10000000
   78.19050000   -42.88590000    -1.90000000
   78.22940000   -42.91960000    -0.50000000
   78.26830000   -42.95340000    -9.20000000
   78.30720000   -42.98720000   -14.40000000
   78.34610000   -43.02100000   -18.60000000
   78.38500000   -43.05470000   -17.10000000
   78.42390000   -43.08850000   -13.40000000
   78.46140000   -43.12070000   -11.40000000
   78.49880000   -43.15280000    -8.60000000
   78.53630000   -43.18500000   -13.70000000
   78.57380000   -43.21720000   -10.90000000
   78.61120000   -43.24930000    -5.80000000
   78.64870000   -43.28150000    -5.30000000
   78.68620000   -43.31360000    -4.80000000
   78.72360000   -43.34580000    -5.40000000
   78.76110000   -43.37800000    -6.00000000
   78.79850000   -43.41010000    -1.60000000
   78.83600000   -43.44230000    -8.00000000
   78.87340000   -43.47460000    -5.70000000
   78.91060000   -43.50710000    -8.60000000
   78.94790000   -43.53950000    -9.30000000
   78.98520000   -43.57190000    -9.90000000
   79.02250000   -43.60440000    -8.30000000
   79.05990000   -43.63680000    -4.50000000
   79.09730000   -43.66920000    -5.20000000
   79.13470000   -43.70160000    -2.30000000
   79.17210000   -43.73400000    -6.40000000
   79.20950000   -43.76640000    -5.90000000
   79.24690000   -43.79880000    -6.60000000
   79.28430000   -43.83120000    -2.50000000
   79.32170000   -43.86360000    -2.00000000
   79.35900000   -43.89610000    -1.50000000
   79.39730000   -43.92860000     3.00000000
   79.43690000   -43.96150000     3.50000000
   79.47650000   -43.99440000     0.60000000
   80.19920000   -43.21400000     1.40000000
   80.22390000   -43.17940000     5.70000000
   80.24850000   -43.14490000     4.20000000
   80.27210000   -43.10650000     7.30000000
   80.29500000   -43.06540000    12.10000000
   80.31790000   -43.02440000     7.80000000
   80.34080000   -42.98330000    10.40000000
   80.36370000   -42.94230000    15.20000000
   80.38920000   -42.90070000    12.20000000
   80.41180000   -42.85980000     8.90000000
   80.43440000   -42.81900000     4.70000000
   80.45700000   -42.77810000    23.10000000
   80.47960000   -42.73720000    13.20000000
   80.50230000   -42.69630000     8.90000000
   80.52490000   -42.65550000    10.30000000
   80.57010000   -42.57370000    16.40000000
   80.59270000   -42.53280000    17.80000000
   80.61530000   -42.49200000    21.50000000
   80.63800000   -42.45110000    22.90000000
   80.66060000   -42.41020000    24.30000000
   80.68320000   -42.36930000    25.80000000
   80.70580000   -42.32840000    25.90000000
   80.75110000   -42.24630000    17.80000000
   80.77370000   -42.20490000    18.00000000
   80.79640000   -42.16360000    18.30000000
   80.81900000   -42.12230000    18.60000000
   80.84170000   -42.08100000    17.80000000
   80.86430000   -42.03970000    19.10000000
   80.88690000   -41.99830000    20.60000000
   80.95490000   -41.87440000    28.30000000
   80.97710000   -41.83320000    23.30000000
   80.99770000   -41.79280000    25.90000000
   81.01830000   -41.75240000    27.30000000
   81.03900000   -41.71200000    24.00000000
   81.05960000   -41.67160000    25.40000000
   81.08020000   -41.63120000    27.90000000
   81.10080000   -41.59080000    30.30000000
   81.12140000   -41.55040000    31.80000000
   81.14120000   -41.51140000    29.80000000
   81.16080000   -41.47260000    32.10000000
   81.18040000   -41.43380000    32.10000000
   81.20000000   -41.39500000    28.80000000
   81.21960000   -41.35620000    23.10000000
   81.23920000   -41.31740000    23.10000000
   81.25490000   -41.28650000    30.00000000
   81.27060000   -41.25570000    22.50000000
   81.28620000   -41.22480000    31.00000000
   81.30190000   -41.19400000    32.60000000
   81.31760000   -41.16320000    36.50000000
   81.33330000   -41.13230000    33.50000000
   81.34900000   -41.10150000    29.40000000
   81.36470000   -41.07070000    26.50000000
   81.38160000   -41.03700000    25.30000000
   81.39860000   -41.00340000    24.80000000
   81.41550000   -40.96980000    27.80000000
   81.43250000   -40.93620000    30.80000000
   81.44950000   -40.90260000    26.90000000
   81.46640000   -40.86900000    20.80000000
   81.51170000   -40.80800000    21.60000000
   81.52630000   -40.78110000    19.40000000
   81.53860000   -40.75880000    15.70000000
   81.55560000   -40.72700000    21.30000000
   81.57480000   -40.69030000    13.10000000
   81.59400000   -40.65360000    15.20000000
   81.61320000   -40.61690000    10.40000000
   81.63240000   -40.58020000    11.40000000
   81.65160000   -40.54340000    12.40000000
   81.67080000   -40.50670000    15.80000000
   81.69000000   -40.47000000     9.90000000
   81.70920000   -40.43330000    11.90000000
   81.72840000   -40.39660000     9.60000000
   81.74770000   -40.35990000     8.30000000
   81.76690000   -40.32320000     5.80000000
   81.78610000   -40.28650000     4.50000000
   81.84250000   -40.22150000     8.70000000
   81.87070000   -40.18900000     5.80000000
   81.89890000   -40.15650000     4.20000000
   81.92710000   -40.12410000     3.50000000
   81.95530000   -40.09160000     4.20000000
   81.98350000   -40.05910000     4.80000000
   82.06810000   -39.96160000    -2.60000000
   82.09630000   -39.92910000     0.40000000
   82.12450000   -39.89660000     3.30000000
   82.15270000   -39.86410000     1.50000000
   82.18090000   -39.83160000    -1.30000000
   82.20910000   -39.79910000     0.50000000
   82.23730000   -39.76660000    -1.30000000
   82.26550000   -39.73410000    -0.70000000
   82.32160000   -39.70070000    -4.10000000
   82.34470000   -39.67460000    -4.10000000
   82.36780000   -39.64840000    -2.80000000
   82.39080000   -39.62230000    -2.80000000
   82.41430000   -39.59700000     1.80000000
   82.43850000   -39.57280000     2.80000000
   82.46260000   -39.54860000     2.80000000
   82.48680000   -39.52440000     1.40000000
   82.51100000   -39.50020000     2.50000000
   82.53510000   -39.47590000     4.70000000
   82.55930000   -39.45170000     8.00000000
   82.58340000   -39.42590000     4.60000000
   82.60750000   -39.39810000     1.20000000
   82.62990000   -39.37090000    -3.30000000
   82.64560000   -39.34620000    -1.00000000
   82.66120000   -39.32150000    -1.10000000
   82.67680000   -39.29680000     0.10000000
   82.69240000   -39.27210000    -3.60000000
   82.70800000   -39.24740000    -4.90000000
   82.72370000   -39.22260000    -7.30000000
   82.73930000   -39.19790000    -8.60000000
   82.95880000   -38.86760000    -0.90000000
   82.97020000   -38.85050000    -0.60000000
   82.98150000   -38.83340000    -0.20000000
   82.99300000   -38.81610000    -0.50000000
   83.00480000   -38.79810000     2.30000000
   83.01670000   -38.78010000     4.00000000
   83.02850000   -38.76210000     4.50000000
   83.04030000   -38.74410000     4.90000000
   83.05220000   -38.72620000     4.20000000
   83.06400000   -38.70820000     3.50000000
   83.07700000   -38.68760000     4.40000000
   83.09000000   -38.66700000     5.00000000
   83.10300000   -38.64650000     4.60000000
   83.11600000   -38.62590000     4.10000000
   83.12900000   -38.60530000    -1.10000000
   83.14200000   -38.58480000    -1.60000000
   83.15810000   -38.55840000     0.50000000
   83.59950000   -38.01140000     0.10000000
   83.65340000   -38.01160000     5.80000000
   83.70730000   -38.01190000     5.80000000
   83.76130000   -38.01210000    -0.20000000
   83.81520000   -38.01230000    -5.90000000
   83.86910000   -38.01260000   -13.90000000
   83.92300000   -38.01280000   -10.40000000
   83.97700000   -38.01310000   -15.10000000
   84.03090000   -38.01330000   -23.00000000
   84.08480000   -38.01360000   -17.40000000
   84.13880000   -38.01380000   -10.60000000
   84.19270000   -38.01410000    -6.10000000
   84.24660000   -38.01430000    -3.70000000
   84.30570000   -38.01510000    -4.30000000
   84.35760000   -38.01580000    -2.00000000
   84.41320000   -38.01660000    -3.30000000
   84.48360000   -38.01760000   -13.80000000
   84.54640000   -38.01840000   -10.40000000
   84.57970000   -38.01890000   -11.60000000
   84.63510000   -38.01970000   -12.80000000
   84.69060000   -38.02050000   -13.90000000
   84.74600000   -38.02130000   -10.70000000
   84.80150000   -38.02200000    -9.60000000
   84.87170000   -38.02300000    -5.10000000
   84.91240000   -38.02360000    -9.70000000
   84.98260000   -38.02460000    -9.80000000
   85.02330000   -38.02520000    -6.40000000
   85.07920000   -38.02520000    -9.10000000
   85.13540000   -38.02480000    -3.30000000
   85.19160000   -38.02440000   -11.30000000
   85.24780000   -38.02400000   -14.70000000
   85.31900000   -38.02350000   -11.20000000
   85.36020000   -38.02320000   -11.20000000
   85.41670000   -38.02280000   -10.70000000
   85.92410000   -38.01380000    -4.80000000
   86.00250000   -38.01070000    -5.60000000
   86.03610000   -38.00930000    -6.70000000
   86.09960000   -38.00680000    -7.60000000
   86.14820000   -38.00480000    -9.70000000
   86.16310000   -38.00420000   -11.90000000
   86.22670000   -38.00170000    -4.80000000
   86.26030000   -38.00030000    -3.50000000
   86.31630000   -37.99800000    -4.50000000
   86.37230000   -37.99580000    -3.10000000
   86.42840000   -37.99350000    -5.30000000
   86.48440000   -37.99130000    -6.20000000
   86.54050000   -37.98900000    -8.30000000
   86.59650000   -37.98680000    -8.10000000
   86.84070000   -37.96100000     4.40000000
   86.89850000   -37.96030000     3.30000000
   86.95620000   -37.95960000     7.90000000
   87.01400000   -37.95890000     5.70000000
   87.07180000   -37.95830000    -3.50000000
   87.12190000   -37.95770000    -2.30000000
   87.18740000   -37.95690000     3.50000000
   87.24520000   -37.95620000     1.30000000
   87.30300000   -37.95560000     1.30000000
   87.36080000   -37.95490000     1.40000000
   87.41850000   -37.95420000     0.40000000
   87.47630000   -37.95350000     0.50000000
   87.53410000   -37.95290000    -0.70000000
   87.59240000   -37.95220000     1.10000000
   87.65080000   -37.95150000    -2.30000000
   87.70660000   -37.95110000    -8.40000000
   87.76160000   -37.95080000    -7.20000000
   87.81650000   -37.95050000    -8.30000000
   87.87150000   -37.95020000    -6.00000000
   87.92650000   -37.94990000    -6.00000000
   87.98140000   -37.94960000    -6.00000000
   88.03640000   -37.94930000    -4.80000000
   88.09130000   -37.94900000    -3.50000000
   88.14630000   -37.94870000    -0.20000000
   88.20130000   -37.94840000     3.50000000
   88.25620000   -37.94810000    -4.70000000
   88.31120000   -37.94780000   -19.40000000
   88.36610000   -37.94750000   -22.90000000
   88.42110000   -37.94720000   -10.30000000
   88.47610000   -37.94680000   -10.30000000
   88.53100000   -37.94650000    -9.10000000
   88.58600000   -37.94620000    -6.80000000
   88.54060000   -37.92580000    -3.50000000
   88.49870000   -37.90440000     0.70000000
   88.45690000   -37.88290000     2.50000000
   88.43740000   -37.87290000    -9.30000000
   88.41510000   -37.86150000   -12.90000000
   88.37320000   -37.84000000   -12.20000000
   88.35090000   -37.82860000    -4.30000000
   88.33140000   -37.81860000     5.90000000
   88.31740000   -37.81150000    11.10000000
   88.28950000   -37.79720000    14.70000000
   88.24740000   -37.77560000     3.00000000
   88.20180000   -37.75270000    -0.90000000
   88.25670000   -37.74970000     6.40000000
   88.31160000   -37.74680000     5.50000000
   88.36640000   -37.74390000     8.10000000
   88.42130000   -37.74090000    -0.90000000
   88.47620000   -37.73800000    -5.40000000
   88.53110000   -37.73510000    -0.50000000
   88.58600000   -37.73210000    13.70000000
   88.64080000   -37.72920000    16.10000000
   88.69570000   -37.72630000    14.20000000
   88.75060000   -37.72330000     9.90000000
   88.80550000   -37.72040000     7.80000000
   88.86040000   -37.71750000     1.10000000
   88.91520000   -37.71450000     3.70000000
   88.97010000   -37.71160000     1.60000000
   89.02500000   -37.70870000    -0.50000000
   89.07990000   -37.70570000    -0.20000000
   89.13480000   -37.70280000    -3.30000000
   89.38720000   -37.30380000   -24.30000000
   89.41180000   -37.26320000   -11.60000000
   89.43640000   -37.22250000   -12.60000000
   89.46110000   -37.18180000   -18.10000000
   89.48570000   -37.14120000   -18.00000000
   89.51040000   -37.10050000    -8.90000000
   89.53530000   -37.05930000   -10.40000000
   89.56020000   -37.01800000    -9.10000000
   89.58510000   -36.97680000   -11.30000000
   93.53290000   -31.42430000   -65.10000000
   93.55660000   -31.39220000   -86.60000000
   93.58030000   -31.36010000  -107.00000000
   93.60350000   -31.32820000  -121.60000000
   93.63510000   -31.27990000  -122.40000000
   93.64860000   -31.25930000  -106.90000000
   93.67380000   -31.22060000   -51.00000000
   93.69900000   -31.18200000     9.40000000
   93.72420000   -31.14330000    70.00000000
   93.77460000   -31.06610000    75.90000000
   93.79980000   -31.02740000    79.00000000
   93.82500000   -30.98880000    64.90000000
   93.85020000   -30.95010000    57.50000000
   93.87540000   -30.91150000    43.50000000
   93.90060000   -30.87280000    38.50000000
   93.92580000   -30.83420000    25.40000000
   93.95100000   -30.79550000    12.40000000
   93.97620000   -30.75690000     5.30000000
   94.00140000   -30.71830000     3.60000000
   94.02720000   -30.67840000     5.80000000
   94.05300000   -30.63860000     7.80000000
   94.07880000   -30.59880000     9.80000000
   94.10460000   -30.55900000     9.40000000
   94.13040000   -30.51910000    12.70000000
   94.15620000   -30.47930000     6.60000000
   94.18200000   -30.43950000    -0.70000000
   94.20780000   -30.39970000   -11.40000000
   94.23360000   -30.35980000   -16.30000000
   94.25940000   -30.32000000   -21.10000000
   94.31100000   -30.24040000   -23.60000000
   94.32300000   -30.22180000   -22.30000000
   94.33680000   -30.20060000   -23.90000000
   94.36260000   -30.16070000   -26.50000000
   94.38840000   -30.12090000   -25.80000000
   94.41420000   -30.08110000   -24.90000000
   94.41470000   -30.13600000   -24.10000000
   94.40820000   -30.17120000   -22.30000000
   94.40140000   -30.20710000   -24.50000000
   94.39370000   -30.24480000   -21.80000000
   94.38600000   -30.28250000   -21.30000000
   94.37830000   -30.32020000   -20.80000000
   94.37050000   -30.35800000   -20.30000000
   94.36280000   -30.39570000   -19.80000000
   94.35510000   -30.43340000   -20.40000000
   94.34740000   -30.47110000   -14.30000000
   94.33960000   -30.50890000   -10.40000000
   94.33170000   -30.54760000    -4.50000000
   94.32370000   -30.58640000     3.00000000
   94.31570000   -30.62520000     8.70000000
   94.30770000   -30.66400000     9.20000000
   94.29980000   -30.70280000    10.70000000
   94.29180000   -30.74160000    12.30000000
   94.28380000   -30.78040000    14.90000000
   94.27590000   -30.81920000    17.50000000
   94.26790000   -30.85800000    22.50000000
   94.25990000   -30.89680000    27.40000000
   94.24890000   -30.99110000    30.00000000
   94.24350000   -31.02270000    29.80000000
   94.23800000   -31.05420000    31.80000000
   94.23260000   -31.08580000    31.60000000
   94.22710000   -31.11730000    40.60000000
   94.22170000   -31.14890000    47.30000000
   94.21630000   -31.18040000    50.50000000
   94.21080000   -31.21190000    31.90000000
   94.20540000   -31.24350000    15.70000000
   94.19990000   -31.27500000   -24.80000000
   94.21250000   -31.29930000    -3.00000000
   94.20660000   -31.33410000   -45.50000000
   94.20220000   -31.36080000   -57.00000000
   94.24820000   -31.29620000   -11.60000000
   94.25500000   -31.28610000    -1.50000000
   94.26180000   -31.27600000     6.20000000
   94.26860000   -31.26590000    12.80000000
   94.27550000   -31.25580000    18.10000000
   94.28230000   -31.24570000    20.10000000
   94.28860000   -31.23610000    19.90000000
   94.29610000   -31.22250000    15.30000000
   94.31510000   -31.19270000    27.30000000
   94.34050000   -31.15290000    21.30000000
   94.36590000   -31.11300000    12.90000000
   94.39140000   -31.07320000    10.40000000
   94.41680000   -31.03330000    10.20000000
   94.44230000   -30.99350000     9.90000000
   94.46770000   -30.95360000    11.90000000
   94.49310000   -30.91380000     9.30000000
   94.51860000   -30.87390000    11.30000000
   94.54400000   -30.83410000     9.90000000
   94.56950000   -30.79420000    10.80000000
   94.59490000   -30.75440000    11.60000000
   94.62030000   -30.71460000    14.80000000
   94.64450000   -30.67660000    10.40000000
   94.66830000   -30.63860000     8.40000000
   94.69200000   -30.60050000     4.60000000
   94.71570000   -30.56250000     0.60000000
   94.73940000   -30.52440000     0.20000000
   94.76310000   -30.48640000    -1.50000000
   94.78680000   -30.44840000    -0.90000000
   94.81050000   -30.41030000     1.00000000
   94.83430000   -30.37260000     2.00000000
   94.85810000   -30.33500000     2.80000000
   94.88190000   -30.29750000     4.60000000
   94.90570000   -30.25990000     4.10000000
   94.92950000   -30.22230000     3.50000000
   94.95330000   -30.18480000     4.20000000
   94.97710000   -30.14720000     1.30000000
   95.00110000   -30.10940000     2.50000000
   95.02520000   -30.07150000    -1.40000000
   95.04940000   -30.03360000    -0.70000000
   95.06550000   -30.00840000    -4.60000000
   95.09040000   -29.95400000    -7.10000000
   95.10780000   -29.91240000    -9.60000000
   95.12510000   -29.87080000   -10.90000000
   95.14250000   -29.82930000   -12.30000000
   95.21190000   -29.66300000   -23.30000000
   95.23030000   -29.62130000   -23.50000000
   95.24930000   -29.57960000   -23.80000000
   95.26820000   -29.53780000   -22.80000000
   95.28720000   -29.49600000   -23.00000000
   95.30610000   -29.45430000   -24.40000000
   95.32510000   -29.41250000   -23.50000000
   95.34400000   -29.37080000   -22.50000000
   95.36300000   -29.32900000   -22.80000000
   95.38190000   -29.28720000   -25.30000000
   95.39650000   -29.25590000   -29.50000000
   95.42950000   -29.18370000   -27.50000000
   95.44840000   -29.14170000   -26.50000000
   95.46740000   -29.09980000   -27.90000000
   95.48630000   -29.05780000   -25.90000000
   95.50520000   -29.01590000   -23.80000000
   95.52420000   -28.97390000   -21.80000000
   95.54310000   -28.93200000   -19.80000000
   95.56200000   -28.89000000   -17.60000000
   95.59990000   -28.80610000   -15.90000000
   95.61880000   -28.76420000   -13.90000000
   95.63770000   -28.72220000   -10.70000000
   95.65670000   -28.68030000    -8.70000000
   95.67560000   -28.63830000    -7.80000000
   95.69450000   -28.59640000    -5.80000000
   95.71330000   -28.55440000    -3.80000000
   95.72390000   -28.53200000    -5.30000000
   95.73460000   -28.50960000    -4.80000000
   95.74520000   -28.48710000    -4.30000000
   95.75580000   -28.46470000    -6.00000000
   95.76640000   -28.44220000    -6.60000000
   95.77710000   -28.41980000    -7.20000000
   95.78670000   -28.39750000   -10.10000000
   95.79570000   -28.37540000   -10.70000000
   95.80470000   -28.35320000   -10.20000000
   95.81370000   -28.33100000    -8.40000000
   95.82270000   -28.30890000    -9.10000000
   95.83170000   -28.28670000   -14.40000000
   95.84070000   -28.26450000   -14.90000000
   95.84970000   -28.24240000   -15.60000000
   95.85870000   -28.22020000   -16.30000000
   95.86770000   -28.19800000   -20.30000000
   95.87690000   -28.17540000   -24.00000000
   95.88610000   -28.15280000   -24.60000000
   95.89520000   -28.13020000   -27.50000000
   95.90440000   -28.10760000   -29.30000000
   95.91480000   -28.08190000   -29.80000000
   95.92370000   -28.03870000   -38.50000000
   95.93000000   -28.02070000   -36.00000000
   95.93630000   -28.00270000   -34.80000000
   95.94250000   -27.98470000   -32.30000000
   95.94880000   -27.96670000   -30.80000000
   95.95510000   -27.94870000   -29.50000000
   95.96140000   -27.93080000   -27.00000000
   95.96770000   -27.91280000   -23.40000000
   95.97390000   -27.89480000   -27.80000000
   95.98980000   -27.85350000   -25.00000000
   96.00560000   -27.81230000   -21.90000000
   96.02150000   -27.77100000   -20.50000000
   96.02890000   -27.75180000   -17.90000000
   96.04270000   -27.71660000   -25.50000000
   96.05330000   -27.68990000   -31.50000000
   96.06920000   -27.64970000   -32.00000000
   96.08510000   -27.60960000   -34.80000000
   96.10110000   -27.56950000   -30.80000000
   96.11700000   -27.52940000   -27.80000000
   96.13290000   -27.48930000   -31.60000000
   96.14890000   -27.44920000   -33.30000000
   96.16490000   -27.40820000   -33.50000000
   96.18100000   -27.36710000   -33.80000000
   96.19710000   -27.32600000   -33.10000000
   96.21320000   -27.28490000   -33.50000000
   96.22910000   -27.24430000   -33.10000000
   96.24490000   -27.20370000   -34.80000000
   96.26070000   -27.16310000   -36.30000000
   96.27660000   -27.12250000   -36.80000000
   96.29240000   -27.08200000   -40.80000000
   96.30820000   -27.04140000   -39.00000000
   96.32410000   -27.00080000   -38.30000000
   96.33990000   -26.96020000   -42.30000000
   96.35570000   -26.91960000   -40.50000000
   96.37160000   -26.87900000   -36.30000000
   96.38740000   -26.83850000   -35.80000000
   96.40320000   -26.79790000   -34.00000000
   96.41910000   -26.75730000   -33.30000000
   96.43490000   -26.71670000   -32.60000000
   96.45090000   -26.67610000   -25.30000000
   96.46880000   -26.63520000   -31.60000000
   96.48670000   -26.59440000   -35.50000000
   96.50470000   -26.55350000   -32.60000000
   96.52260000   -26.51260000   -28.50000000
   96.65230000   -26.53800000   -22.00000000
   96.69870000   -26.55260000   -19.60000000
   96.74510000   -26.56720000   -20.60000000
   96.79150000   -26.58180000   -19.40000000
   96.83790000   -26.59650000   -19.30000000
   96.88430000   -26.61110000   -15.90000000
   96.93070000   -26.62570000   -16.80000000
   96.97710000   -26.64030000   -20.30000000
   97.02340000   -26.65500000   -17.80000000
   97.06980000   -26.66960000   -21.10000000
   97.11620000   -26.68420000   -21.00000000
   97.16260000   -26.69880000   -22.10000000
   97.20890000   -26.71340000   -23.40000000
   97.25440000   -26.72760000   -21.00000000
   97.29990000   -26.74180000   -20.90000000
   97.34530000   -26.75600000   -21.90000000
   97.43110000   -26.74800000   -24.80000000
   97.47380000   -26.76090000   -24.50000000
   97.51640000   -26.77380000   -25.40000000
   97.55910000   -26.78670000   -24.10000000
   97.60180000   -26.79950000   -25.00000000
   97.64440000   -26.81240000   -27.10000000
   97.68710000   -26.82530000   -28.00000000
   97.72980000   -26.83820000   -25.50000000
   97.77240000   -26.85090000   -21.80000000
   97.81510000   -26.86350000   -21.60000000
   97.85780000   -26.87600000   -21.40000000
   97.90030000   -26.89080000   -25.30000000
   97.94270000   -26.90560000   -22.80000000
   97.98510000   -26.92040000   -22.80000000
   98.02750000   -26.93520000   -16.90000000
   98.06840000   -26.95260000   -14.60000000
   98.10870000   -26.97100000   -13.60000000
   98.14900000   -26.98940000   -12.60000000
   98.18930000   -27.00770000   -12.80000000
   98.22960000   -27.02610000   -15.30000000
   98.26990000   -27.04440000   -18.80000000
   98.31020000   -27.06280000   -17.90000000
   98.35050000   -27.08120000    -8.90000000
   98.39090000   -27.09950000    -6.90000000
   98.43120000   -27.11790000   -24.30000000
   98.47150000   -27.13620000   -38.30000000
   98.51180000   -27.15460000   -52.30000000
   98.55240000   -27.17300000   -61.50000000
   98.56590000   -27.17920000   -62.00000000
   98.59290000   -27.19150000   -56.00000000
   98.63350000   -27.20990000   -50.30000000
   98.67410000   -27.22840000   -43.60000000
   98.71470000   -27.24680000   -41.50000000
   98.75520000   -27.26520000   -37.10000000
   98.79580000   -27.28370000   -39.60000000
   98.83640000   -27.30180000   -36.50000000
   98.87700000   -27.31960000   -27.40000000
   98.92840000   -27.34230000   -15.40000000
   98.95810000   -27.35540000   -32.30000000
   98.99870000   -27.37330000   -30.30000000
   99.03930000   -27.39120000   -18.90000000
   99.07980000   -27.40910000    -8.70000000
   99.12210000   -27.42540000     8.40000000
   99.16500000   -27.44120000    -7.90000000
   99.20780000   -27.45700000   -25.30000000
   99.25070000   -27.47280000   -31.10000000
   99.29350000   -27.48850000   -38.00000000
   99.33630000   -27.50430000   -39.30000000
   99.37920000   -27.52010000   -39.30000000
   99.42200000   -27.53580000   -39.30000000
   99.46490000   -27.55160000   -34.60000000
   99.50770000   -27.56740000   -33.50000000
   99.55050000   -27.58310000   -32.50000000
   99.59340000   -27.59890000   -31.20000000
   99.63620000   -27.61470000   -30.10000000
   99.67900000   -27.63040000   -28.90000000
   99.72190000   -27.64620000   -29.00000000
   99.76470000   -27.66190000   -30.10000000
   99.80750000   -27.67770000   -29.00000000
   99.85040000   -27.69350000   -27.90000000
   99.89320000   -27.70920000   -25.60000000
   99.93390000   -27.72680000   -28.30000000
  100.06960000   -27.84500000   -28.90000000
  100.10660000   -27.86240000   -29.10000000
  100.14430000   -27.87940000   -25.90000000
  100.18360000   -27.89540000   -24.80000000
  100.22300000   -27.91150000   -25.90000000
  100.26230000   -27.92750000   -27.10000000
  100.30170000   -27.94360000   -28.30000000
  100.34100000   -27.95970000   -29.50000000
  100.38040000   -27.97570000   -29.60000000
  100.41950000   -27.99220000   -32.60000000
  100.45680000   -28.01130000   -34.10000000
  100.49410000   -28.03040000   -33.30000000
  100.53140000   -28.04950000   -33.50000000
  100.56880000   -28.06860000   -37.30000000
  100.60610000   -28.08770000   -39.80000000
  100.64340000   -28.10680000   -40.00000000
  100.68070000   -28.12590000   -37.00000000
  100.76500000   -28.13760000   -33.60000000
  100.80780000   -28.14150000   -35.00000000
  100.85070000   -28.14530000   -34.10000000
  100.89350000   -28.14920000   -39.00000000
  100.93910000   -28.15050000   -38.80000000
  100.98480000   -28.15190000   -38.80000000
  101.03040000   -28.15320000   -37.80000000
  101.07600000   -28.15460000   -35.50000000
  101.12170000   -28.15600000   -34.50000000
  101.16730000   -28.15730000   -34.50000000
  101.21300000   -28.15870000   -33.50000000
  101.25860000   -28.16000000   -34.80000000
  101.29510000   -28.16110000   -31.30000000
  101.34160000   -28.19190000   -37.80000000
  101.38040000   -28.21750000   -39.60000000
  101.41920000   -28.24310000   -42.80000000
  101.45790000   -28.26870000   -42.30000000
