   71.09170000    11.65750000   -25.10000000
   71.07200000    11.64240000   -26.60000000
   71.05230000    11.62730000   -28.10000000
   71.03250000    11.61220000   -30.60000000
   71.01280000    11.59710000   -29.10000000
   70.99310000    11.58210000   -26.50000000
   70.97340000    11.56700000   -22.90000000
   70.95370000    11.55190000   -24.40000000
   70.93400000    11.53680000   -25.90000000
   70.91420000    11.52170000   -30.50000000
   70.89450000    11.50660000   -36.10000000
   70.87500000    11.49170000   -42.30000000
   70.85590000    11.47640000   -42.80000000
   70.83680000    11.46120000   -46.30000000
   70.81760000    11.44600000   -49.00000000
   70.79850000    11.43070000   -49.30000000
   70.77940000    11.41550000   -48.80000000
   70.76030000    11.40020000   -48.30000000
   70.74120000    11.38500000   -48.80000000
   70.72200000    11.36980000   -48.30000000
   70.70290000    11.35450000   -47.80000000
   70.68380000    11.33930000   -47.30000000
   70.66470000    11.32410000   -46.60000000
   70.64550000    11.30910000   -45.10000000
   70.62600000    11.29450000   -44.60000000
   70.60650000    11.27980000   -44.10000000
   70.58700000    11.26520000   -42.60000000
   70.56750000    11.25050000   -41.10000000
   70.54800000    11.23580000   -39.60000000
   70.52950000    11.22090000   -39.60000000
   70.51090000    11.20590000   -39.10000000
   70.49240000    11.19100000   -40.60000000
   70.47400000    11.17520000   -41.50000000
   70.45580000    11.15880000   -41.00000000
   70.43750000    11.14240000   -39.30000000
   70.41920000    11.12610000   -37.80000000
   70.40100000    11.10970000   -37.30000000
   70.38270000    11.09330000   -34.60000000
   70.36450000    11.07700000   -34.00000000
   70.34620000    11.06060000   -33.50000000
   70.32790000    11.04420000   -34.00000000
   70.30950000    11.02770000   -35.00000000
   70.29100000    11.01120000   -34.30000000
   70.27260000    10.99470000   -33.80000000
   70.25420000    10.97810000   -35.30000000
   70.23570000    10.96160000   -37.80000000
   70.21750000    10.94480000   -37.30000000
   70.19970000    10.92820000   -36.00000000
   70.18200000    10.91160000   -37.30000000
   70.16420000    10.89490000   -36.80000000
   70.14650000    10.87830000   -36.30000000
   70.12880000    10.86170000   -35.80000000
   70.11170000    10.84470000   -30.30000000
   70.09500000    10.82760000   -28.80000000
   70.07830000    10.81050000   -28.30000000
   70.06160000    10.79330000   -32.80000000
   70.03020000    10.75780000   -35.00000000
   70.01380000    10.74050000   -36.50000000
   69.99740000    10.72320000   -40.00000000
   69.98100000    10.70590000   -43.50000000
   69.95450000    10.63310000   -49.80000000
   69.94620000    10.62440000   -49.50000000
   69.92960000    10.60680000   -48.80000000
   69.91300000    10.58930000   -49.30000000
   69.89650000    10.57170000   -48.80000000
   69.86330000    10.53670000   -47.50000000
   69.84670000    10.51960000   -48.10000000
   69.83020000    10.50250000   -47.50000000
   69.81360000    10.48540000   -45.80000000
   69.79690000    10.46810000   -45.60000000
   69.78020000    10.45090000   -43.00000000
   69.76350000    10.43370000   -43.50000000
   69.74680000    10.41650000   -42.00000000
   69.73010000    10.39920000   -42.50000000
   69.71330000    10.38200000   -40.80000000
   69.69710000    10.36470000   -38.50000000
   69.68140000    10.34720000   -39.00000000
   69.66580000    10.32970000   -37.50000000
   69.64990000    10.31200000   -36.50000000
   69.63400000    10.29440000   -38.00000000
   69.61810000    10.27670000   -37.50000000
   69.64140000    10.22770000   -42.30000000
   69.65310000    10.20320000   -43.50000000
   69.66470000    10.17870000   -42.80000000
   69.67640000    10.15430000   -42.00000000
   69.68810000    10.12980000   -41.30000000
   69.69970000    10.10530000   -41.50000000
   69.71140000    10.08080000   -40.80000000
   69.72300000    10.05640000   -41.00000000
   69.73460000    10.03210000   -40.50000000
   69.74610000    10.00820000   -38.80000000
   69.75760000     9.98430000   -38.00000000
   69.76930000     9.96020000   -38.00000000
   69.78090000     9.93610000   -37.30000000
   69.79250000     9.91200000   -38.60000000
   69.80420000     9.88790000   -39.00000000
   69.81580000     9.86380000   -38.10000000
   69.82740000     9.83970000   -38.50000000
   69.85090000     9.79200000   -41.10000000
   69.86250000     9.76810000   -39.50000000
   69.87420000     9.74420000   -38.80000000
   69.88580000     9.72030000   -39.00000000
   69.89740000     9.69640000   -39.30000000
   69.90900000     9.67250000   -39.60000000
   69.93430000     9.62500000   -36.80000000
   69.94760000     9.60150000   -37.10000000
   69.96090000     9.57790000   -38.50000000
   69.97420000     9.55430000   -38.80000000
   69.98750000     9.53060000   -43.00000000
   70.00090000     9.50700000   -43.30000000
   70.01420000     9.48330000   -44.80000000
   70.02760000     9.45960000   -44.00000000
   70.04090000     9.43590000   -44.30000000
   70.05430000     9.41230000   -42.60000000
   70.06770000     9.38860000   -42.30000000
   70.08130000     9.36520000   -41.80000000
   70.09480000     9.34180000   -43.00000000
   70.10840000     9.31840000   -42.30000000
   70.12200000     9.29500000   -42.80000000
   70.13550000     9.27160000   -43.00000000
   70.14920000     9.24800000   -42.10000000
   70.16290000     9.22440000   -43.50000000
   70.17640000     9.20110000   -43.30000000
   70.18990000     9.17790000   -43.50000000
   70.20340000     9.15470000   -43.00000000
   70.21690000     9.13150000   -43.30000000
   70.22470000     9.11900000   -41.80000000
   70.23240000     9.10650000   -38.50000000
   70.24010000     9.09410000   -37.00000000
   70.24790000     9.08160000   -36.80000000
   70.25560000     9.06910000   -36.30000000
   70.26330000     9.05670000   -37.00000000
   70.27080000     9.04410000   -36.50000000
   70.27820000     9.03150000   -37.10000000
   70.28570000     9.01900000   -36.80000000
   70.29310000     9.00640000   -36.50000000
   70.30050000     8.99390000   -36.00000000
   70.30800000     8.98130000   -36.80000000
   70.31560000     8.96850000   -38.00000000
   70.32320000     8.95560000   -39.80000000
   70.33070000     8.94280000   -39.30000000
   70.33830000     8.93000000   -39.00000000
   70.34540000     8.91670000   -41.00000000
   70.35250000     8.90330000   -40.60000000
   70.35950000     8.89000000   -40.30000000
   70.36660000     8.87660000   -38.80000000
   70.37370000     8.86330000   -38.50000000
   70.39810000     8.81750000   -33.80000000
   70.41030000     8.79460000   -35.30000000
   70.42250000     8.77170000   -35.60000000
   70.43470000     8.74880000   -37.00000000
   70.44690000     8.72590000   -39.50000000
   70.45910000     8.70300000   -41.00000000
   70.47140000     8.68010000   -42.30000000
   70.48360000     8.65720000   -42.80000000
   70.53330000     8.67770000   -42.10000000
   70.55830000     8.68830000   -42.50000000
   70.58330000     8.69880000   -43.70000000
   70.60830000     8.70940000   -46.00000000
   70.63330000     8.72000000   -46.30000000
   70.64580000     8.72530000   -45.50000000
   70.65830000     8.73060000   -44.50000000
   70.68330000     8.74120000   -42.80000000
   70.70830000     8.75170000   -39.00000000
   70.73330000     8.76230000   -37.30000000
   70.75830000     8.77290000   -35.50000000
   70.78300000     8.78340000   -43.00000000
   70.80760000     8.79390000   -48.50000000
   70.83220000     8.80430000   -52.80000000
   70.85670000     8.81480000   -53.10000000
   70.88130000     8.82530000   -52.50000000
   70.90590000     8.83570000   -50.60000000
   70.93040000     8.84620000   -47.80000000
   70.95500000     8.85670000   -46.10000000
   70.97960000     8.86660000   -44.10000000
   71.00430000     8.87650000   -44.50000000
   71.02890000     8.88630000   -45.80000000
   71.05360000     8.89620000   -47.00000000
   71.07820000     8.90610000   -47.30000000
   71.10310000     8.91610000   -49.00000000
   71.12800000     8.92610000   -48.30000000
   71.15290000     8.93610000   -48.50000000
   71.17780000     8.94610000   -49.80000000
   71.20270000     8.95610000   -49.10000000
   71.22750000     8.96610000   -50.30000000
   71.25240000     8.97610000   -49.60000000
   71.27730000     8.98610000   -50.00000000
   71.30220000     8.99610000   -49.10000000
   71.32710000     9.00610000   -50.50000000
   71.35200000     9.01610000   -50.80000000
   71.37680000     9.02610000   -52.00000000
   71.40170000     9.03620000   -52.00000000
   71.42670000     9.04660000   -52.30000000
   71.45170000     9.05700000   -51.50000000
   71.47680000     9.06740000   -50.80000000
   71.50180000     9.07780000   -50.10000000
   71.52680000     9.08820000   -51.50000000
   71.55180000     9.09960000   -54.00000000
   71.57670000     9.11100000   -54.30000000
   71.60170000     9.12240000   -54.50000000
   71.62670000     9.13380000   -52.80000000
   71.65180000     9.14520000   -51.50000000
   71.67700000     9.15660000   -49.80000000
   71.70220000     9.16800000   -48.10000000
   71.72740000     9.17940000   -46.50000000
   71.75270000     9.19080000   -44.60000000
   71.77790000     9.20220000   -45.00000000
   71.80310000     9.21360000   -44.30000000
   71.82830000     9.22500000   -47.60000000
   71.85330000     9.23510000   -44.50000000
   71.87830000     9.24520000   -43.70000000
   71.90340000     9.25530000   -43.00000000
   71.92840000     9.26540000   -43.30000000
   71.95340000     9.27550000   -43.60000000
   71.97840000     9.28560000   -44.00000000
   72.00340000     9.29570000   -42.30000000
   72.02840000     9.30580000   -41.50000000
   72.05330000     9.31590000   -39.80000000
   72.07830000     9.32600000   -38.00000000
   72.10370000     9.33610000   -33.80000000
   72.12930000     9.34630000   -29.90000000
   72.15480000     9.35640000   -27.30000000
   72.18030000     9.36660000   -29.80000000
   72.20580000     9.37670000   -31.00000000
   72.23130000     9.38690000   -35.30000000
   72.25650000     9.39710000   -43.70000000
   72.28090000     9.40750000   -45.00000000
   72.30530000     9.41780000   -41.30000000
   72.32970000     9.42820000   -35.50000000
   72.35400000     9.43860000   -31.80000000
   72.37840000     9.44900000   -32.00000000
   72.40280000     9.45930000   -32.30000000
   72.42710000     9.46970000   -31.60000000
   72.45150000     9.48010000   -31.90000000
   72.47590000     9.49050000   -29.10000000
   72.50020000     9.50080000   -27.40000000
   72.52540000     9.51150000   -22.30000000
   72.55110000     9.52220000   -22.60000000
   72.57670000     9.53300000   -25.00000000
   72.60240000     9.54370000   -24.30000000
   72.62800000     9.55440000   -23.60000000
   72.65370000     9.56520000   -25.00000000
   72.67930000     9.57590000   -22.30000000
   72.70500000     9.58670000   -21.50000000
   72.73090000     9.59600000   -20.10000000
   72.82020000     9.59950000    -7.10000000
   72.84610000     9.61020000    -5.40000000
   72.87200000     9.62080000    -3.00000000
   72.89770000     9.63130000    -2.30000000
   72.92340000     9.64180000    -3.70000000
   72.94910000     9.65220000    -6.10000000
   72.97490000     9.66270000    -8.40000000
   73.00060000     9.67320000   -12.80000000
   73.02630000     9.68360000   -18.10000000
   73.05200000     9.69410000   -18.40000000
   73.07780000     9.70450000   -15.80000000
   73.10310000     9.71480000   -16.30000000
   73.12830000     9.72500000   -12.40000000
   73.15190000     9.73550000   -10.30000000
   73.16370000     9.74080000    -5.30000000
   73.17540000     9.74610000     1.80000000
   73.18720000     9.75140000     9.80000000
   73.19430000     9.75450000    17.80000000
   73.19900000     9.75660000    29.90000000
   73.20610000     9.75980000    23.80000000
   73.21080000     9.76190000     9.40000000
   73.22250000     9.76720000    -6.10000000
   73.23420000     9.77300000   -18.90000000
   73.24590000     9.77870000   -29.30000000
   73.25760000     9.78450000   -37.60000000
   73.26930000     9.79020000   -44.00000000
   73.29260000     9.80170000   -52.50000000
   73.31600000     9.81320000   -56.80000000
   73.33930000     9.82480000   -56.10000000
   73.36340000     9.83540000   -47.80000000
   73.38850000     9.84480000   -48.10000000
   73.46380000     9.87290000   -61.10000000
   73.48890000     9.88230000   -60.50000000
   73.52890000     9.89540000   -57.30000000
   73.55110000     9.90320000   -49.30000000
   73.57340000     9.91110000   -45.50000000
   73.58560000     9.91340000   -25.60000000
   73.60100000     9.91880000   -21.00000000
   73.63240000     9.93150000   -18.40000000
   73.64810000     9.93790000   -17.60000000
   73.66380000     9.94430000   -16.80000000
   73.67960000     9.95070000   -16.90000000
   73.69530000     9.95700000   -17.10000000
   73.71100000     9.96340000   -23.40000000
   73.72750000     9.97020000   -25.60000000
   73.74400000     9.97700000   -30.90000000
   73.76050000     9.98380000   -33.30000000
   73.77700000     9.99070000   -36.50000000
   73.85380000    10.02270000   -47.00000000
   73.86260000    10.02630000   -49.30000000
   73.88010000    10.03370000   -48.50000000
   73.89760000    10.04110000   -49.60000000
   73.91510000    10.04840000   -53.00000000
   73.93260000    10.05580000   -55.30000000
   73.97420000    10.07440000   -56.00000000
   73.99710000    10.08490000   -55.30000000
   74.02000000    10.09550000   -51.50000000
   74.04290000    10.10610000   -49.80000000
   74.06580000    10.11670000   -49.00000000
   74.08870000    10.12720000   -47.30000000
   74.11160000    10.13780000   -47.80000000
   74.13460000    10.14840000   -51.10000000
   74.15750000    10.15900000   -55.50000000
   74.18040000    10.16950000   -58.80000000
   74.20370000    10.18050000   -62.00000000
   74.22710000    10.19150000   -63.30000000
   74.25060000    10.20250000   -63.80000000
   74.27400000    10.21350000   -64.10000000
   74.29740000    10.22450000   -62.30000000
   74.32080000    10.23550000   -60.60000000
   74.34430000    10.24650000   -61.00000000
   74.36770000    10.25750000   -59.30000000
   74.39110000    10.26850000   -57.60000000
   74.41450000    10.27950000   -56.00000000
   74.43790000    10.29050000   -54.30000000
   74.46130000    10.30150000   -54.60000000
   74.48500000    10.31270000   -54.30000000
   74.50870000    10.32380000   -53.80000000
   74.53230000    10.33490000   -53.00000000
   74.55600000    10.34610000   -51.30000000
   74.57970000    10.35720000   -51.80000000
   74.60330000    10.36830000   -52.00000000
   74.62420000    10.37950000   -59.60000000
   74.64510000    10.39060000   -59.00000000
   74.66600000    10.40170000   -59.30000000
   74.70790000    10.42400000   -58.00000000
   74.72880000    10.43510000   -56.30000000
   74.74980000    10.44630000   -57.50000000
   74.77080000    10.45750000   -57.80000000
   74.79190000    10.46870000   -61.30000000
   74.81290000    10.47990000   -62.50000000
   74.83390000    10.49110000   -64.00000000
   74.85490000    10.50230000   -64.20000000
   74.87650000    10.51380000   -64.40000000
   74.89800000    10.52530000   -63.80000000
   74.91950000    10.53670000   -63.00000000
   74.94100000    10.54820000   -61.50000000
   74.96250000    10.55960000   -59.80000000
   74.98400000    10.57110000   -59.00000000
   75.00490000    10.58220000   -60.00000000
   75.02580000    10.59330000   -59.50000000
   75.04700000    10.60520000   -55.60000000
   75.06870000    10.61820000   -55.00000000
   75.09040000    10.63120000   -54.50000000
   75.11210000    10.64420000   -47.80000000
   75.13380000    10.65720000   -44.10000000
   75.17560000    10.68240000   -39.50000000
   75.19780000    10.69570000   -34.80000000
   75.22010000    10.70900000   -30.10000000
   75.24240000    10.72230000   -26.50000000
   75.27560000    10.74390000   -16.40000000
   75.31670000    10.76870000    -7.10000000
   75.33720000    10.78110000    -5.50000000
   75.35780000    10.79340000    -2.80000000
   75.37830000    10.80580000     0.90000000
   75.39890000    10.81820000     4.70000000
   75.46040000    10.75820000    11.90000000
   75.46660000    10.74410000    11.40000000
   75.47270000    10.73010000     9.80000000
   75.47880000    10.71620000     8.10000000
   75.48490000    10.70230000     7.50000000
   75.49100000    10.68840000     7.00000000
   75.49710000    10.67440000     6.40000000
   75.50290000    10.66010000     4.00000000
   75.50870000    10.64560000     4.50000000
   75.51450000    10.63110000     3.80000000
   75.52020000    10.61660000     3.30000000
   75.52600000    10.60210000     2.80000000
   75.53170000    10.58760000     2.30000000
   75.53750000    10.57310000     1.60000000
   75.54320000    10.55860000     0.20000000
   75.54930000    10.54370000     1.20000000
   75.55530000    10.52870000     0.70000000
   75.56130000    10.51370000    -0.90000000
   75.50420000    10.43630000    -3.60000000
   75.48560000    10.41600000    -5.10000000
   75.46700000    10.39570000   -11.40000000
   75.44830000    10.37560000   -16.50000000
   75.42000000    10.34550000   -33.00000000
   75.41060000    10.33550000   -41.80000000
   75.39180000    10.31550000   -51.30000000
   75.37310000    10.29550000   -58.80000000
   75.35430000    10.27540000   -62.10000000
   75.33550000    10.25540000   -64.70000000
   75.31670000    10.23540000   -69.10000000
   75.29790000    10.21540000   -68.50000000
   75.27900000    10.19550000   -68.70000000
   75.25990000    10.17600000   -69.20000000
   75.24080000    10.15640000   -67.50000000
   75.22170000    10.13680000   -65.90000000
   75.20260000    10.11730000   -64.30000000
   75.18350000    10.09770000   -63.60000000
   75.16460000    10.07850000   -61.30000000
   75.14580000    10.05920000   -60.80000000
   75.12700000    10.04000000   -58.00000000
   75.10820000    10.02080000   -59.50000000
   75.08930000    10.00150000   -59.00000000
   75.07050000     9.98230000   -57.30000000
   75.05170000     9.96300000   -54.60000000
   75.03290000     9.94380000   -55.10000000
   75.01400000     9.92460000   -54.50000000
   74.99520000     9.90530000   -54.00000000
   74.97640000     9.88610000   -53.30000000
   74.95760000     9.86680000   -52.80000000
   74.93920000     9.84810000   -51.00000000
   74.92080000     9.82940000   -50.50000000
   74.84740000     9.75450000   -51.30000000
   74.82900000     9.73580000   -42.50000000
   74.81110000     9.71670000   -39.00000000
   74.79350000     9.69740000   -38.50000000
   74.77590000     9.67810000   -40.00000000
   74.75830000     9.65880000   -46.50000000
   74.74060000     9.63950000   -53.00000000
   74.72310000     9.62020000   -59.50000000
   74.70550000     9.60100000   -64.10000000
   74.68790000     9.58170000   -64.60000000
   74.67030000     9.56240000   -66.00000000
   74.65270000     9.54310000   -66.50000000
   74.63520000     9.52390000   -64.90000000
   74.61880000     9.50450000   -52.00000000
   74.60280000     9.48510000   -49.50000000
   74.58680000     9.46570000   -53.00000000
   74.57080000     9.44630000   -54.50000000
   74.55480000     9.42690000   -58.00000000
   74.53880000     9.40750000   -61.50000000
   74.52350000     9.38890000   -65.20000000
   74.50820000     9.37030000   -66.70000000
   74.49290000     9.35180000   -65.10000000
   74.47760000     9.33320000   -66.60000000
   74.46230000     9.31460000   -67.10000000
   74.44700000     9.29600000   -65.60000000
   74.43170000     9.27750000   -63.00000000
   74.41640000     9.25890000   -61.50000000
   74.40110000     9.24030000   -63.00000000
   74.38590000     9.22180000   -65.50000000
   74.37060000     9.20320000   -66.00000000
   74.35530000     9.18440000   -62.60000000
   74.34050000     9.16510000   -59.60000000
   74.32560000     9.14570000   -59.10000000
   74.31070000     9.12630000   -56.50000000
   74.29590000     9.10700000   -57.00000000
   74.28100000     9.08760000   -58.50000000
   74.26620000     9.06820000   -59.00000000
   74.25130000     9.04890000   -56.50000000
   74.23570000     9.02990000   -56.30000000
   74.21990000     9.01100000   -55.80000000
   74.20410000     8.99210000   -55.30000000
   74.18830000     8.97330000   -54.80000000
   74.17250000     8.95440000   -54.30000000
   74.15700000     8.93580000   -53.00000000
   74.14150000     8.91730000   -52.50000000
   74.12600000     8.89880000   -52.00000000
   74.11050000     8.88020000   -54.50000000
   74.09500000     8.86170000   -55.00000000
   74.07980000     8.84250000   -54.50000000
   74.06470000     8.82340000   -52.00000000
   74.04960000     8.80430000   -51.50000000
   74.03440000     8.78520000   -52.00000000
   74.01930000     8.76600000   -51.50000000
   74.00410000     8.74690000   -51.00000000
   73.98900000     8.72780000   -49.50000000
   73.97380000     8.70850000   -48.10000000
   73.95850000     8.68930000   -48.60000000
   73.94330000     8.67010000   -51.10000000
   73.92810000     8.65090000   -52.60000000
   73.91290000     8.63160000   -54.30000000
   73.89770000     8.61240000   -57.80000000
   73.88250000     8.59320000   -58.30000000
   73.86710000     8.57400000   -59.60000000
   73.85160000     8.55470000   -57.10000000
   73.83600000     8.53550000   -55.50000000
   73.82050000     8.51630000   -53.00000000
   73.80490000     8.49700000   -50.50000000
   73.78980000     8.47820000   -49.00000000
   73.77460000     8.45940000   -46.50000000
   73.75940000     8.44060000   -44.00000000
   73.74430000     8.42180000   -44.50000000
   73.72910000     8.40300000   -44.00000000
   73.71410000     8.38420000   -40.60000000
   73.69920000     8.36560000   -37.00000000
   73.68440000     8.34700000   -36.50000000
   73.66960000     8.32840000   -36.10000000
   73.65480000     8.30980000   -32.50000000
   73.63990000     8.29120000   -24.90000000
   73.62510000     8.27260000   -21.40000000
   73.61040000     8.25410000   -21.80000000
   73.59570000     8.23570000   -22.30000000
   73.58100000     8.21720000   -21.80000000
   73.56630000     8.19870000   -25.40000000
   73.55100000     8.18020000   -35.80000000
   73.53570000     8.16180000   -38.30000000
   73.52030000     8.14340000   -42.00000000
   73.50500000     8.12490000   -42.50000000
   73.48960000     8.10650000   -43.10000000
   73.47430000     8.08810000   -43.60000000
   73.45890000     8.06960000   -42.10000000
   73.44360000     8.05120000   -40.80000000
   73.42820000     8.03260000   -40.50000000
   73.41280000     8.01410000   -40.00000000
   73.39730000     7.99560000   -41.50000000
   73.38190000     7.97710000   -41.10000000
   73.36650000     7.95850000   -38.60000000
   73.35110000     7.94000000   -32.00000000
   73.33570000     7.92150000   -26.50000000
   73.32030000     7.90310000   -22.40000000
   73.30510000     7.88550000    -7.90000000
   73.28990000     7.86780000     0.90000000
   73.25940000     7.83260000    12.90000000
   73.24400000     7.81460000    16.80000000
   73.22850000     7.79670000    15.20000000
   73.21310000     7.77870000    11.60000000
   73.19760000     7.76080000     5.90000000
   73.18230000     7.74290000    -0.70000000
   73.16740000     7.72520000   -10.40000000
   73.15240000     7.70760000   -20.10000000
   73.13740000     7.68990000   -27.90000000
   73.12250000     7.67220000   -33.50000000
   73.10750000     7.65450000   -33.10000000
   73.09250000     7.63680000   -32.80000000
   73.07760000     7.61910000   -28.30000000
   73.06260000     7.60140000   -21.80000000
   73.04760000     7.58370000   -11.20000000
   73.03240000     7.56580000    -9.20000000
   73.01690000     7.54780000    -8.70000000
   72.98580000     7.51170000    -5.90000000
   72.97040000     7.49370000    -4.40000000
   72.95480000     7.47570000    -7.10000000
   72.93930000     7.45760000   -10.70000000
   72.91990000     7.43520000   -23.50000000
   72.90440000     7.41710000   -26.10000000
   72.88880000     7.39900000   -28.80000000
   72.87330000     7.38090000   -32.50000000
   72.85770000     7.36280000   -34.00000000
   72.84220000     7.34480000   -37.80000000
   72.82670000     7.32670000   -39.30000000
   72.81370000     7.30920000   -36.30000000
   72.91150000     7.29300000   -28.30000000
   72.94360000     7.29720000   -25.30000000
   72.97570000     7.30140000   -22.30000000
   73.00780000     7.30560000   -16.30000000
   73.03990000     7.30980000   -15.40000000
   73.07200000     7.31400000   -20.60000000
   73.10410000     7.31820000   -29.80000000
   73.13620000     7.32250000   -37.00000000
   73.16830000     7.32670000   -39.30000000
   73.19770000     7.33280000   -43.60000000
   73.22700000     7.33890000   -38.80000000
   73.25630000     7.34510000   -34.80000000
   73.28570000     7.35120000   -36.00000000
   73.31500000     7.35730000   -39.10000000
   73.34440000     7.36340000   -41.30000000
   73.37370000     7.36960000   -43.50000000
   73.40300000     7.37570000   -42.60000000
   73.43240000     7.38180000   -42.80000000
   73.46170000     7.38800000   -45.00000000
   73.49110000     7.39410000   -51.10000000
   73.52040000     7.40020000   -55.30000000
   73.55010000     7.40640000   -55.50000000
   73.57990000     7.41260000   -57.60000000
   73.60960000     7.41880000   -58.80000000
   73.63920000     7.42350000   -57.50000000
   73.66870000     7.42810000   -51.50000000
   73.69820000     7.43280000   -41.50000000
   73.72770000     7.43750000   -44.50000000
   73.75730000     7.44220000   -53.80000000
   73.78670000     7.44590000   -57.80000000
   73.81590000     7.44800000   -59.80000000
   73.84510000     7.45010000   -61.00000000
   73.87440000     7.45230000   -59.00000000
   73.90370000     7.45440000   -56.80000000
   73.93300000     7.45650000   -56.80000000
   73.96220000     7.45870000   -57.00000000
   73.99150000     7.46080000   -57.00000000
   74.02080000     7.46300000   -52.00000000
   74.05010000     7.46510000   -50.00000000
   74.07940000     7.46730000   -48.00000000
   74.10870000     7.46940000   -47.00000000
   74.13800000     7.47150000   -42.00000000
   74.16730000     7.47370000   -42.00000000
   74.19650000     7.47580000   -41.00000000
   74.22580000     7.47800000   -41.00000000
   74.25500000     7.48210000   -42.50000000
   74.28420000     7.48620000   -42.60000000
   74.31330000     7.49030000   -42.80000000
   74.34250000     7.49440000   -40.80000000
   74.37170000     7.49850000   -38.80000000
   74.40080000     7.50260000   -37.80000000
   74.43000000     7.50670000   -37.80000000
   74.45870000     7.51270000   -38.30000000
   74.48740000     7.51870000   -39.50000000
   74.51610000     7.52470000   -40.50000000
   74.54480000     7.53070000   -39.80000000
   74.57350000     7.53670000   -39.80000000
   74.63000000     7.54860000   -42.30000000
   74.68650000     7.56050000   -41.50000000
   74.71470000     7.56640000   -41.80000000
   74.74360000     7.57180000   -37.60000000
   74.77310000     7.57610000   -39.50000000
   74.83220000     7.58480000   -38.80000000
   74.86170000     7.58920000   -38.80000000
   74.89130000     7.59360000   -38.00000000
   74.92080000     7.59790000   -38.00000000
   74.95060000     7.60230000   -37.50000000
   74.98040000     7.60670000   -37.60000000
   75.01020000     7.61110000   -37.80000000
   75.04000000     7.61550000   -37.80000000
   75.06970000     7.61990000   -38.00000000
   75.09890000     7.62450000   -42.00000000
   75.12750000     7.62930000   -43.10000000
   75.15620000     7.63400000   -44.30000000
   75.18490000     7.63870000   -48.50000000
   75.21360000     7.64350000   -53.60000000
   75.24220000     7.64820000   -57.80000000
   75.27090000     7.65300000   -60.00000000
   75.29930000     7.65770000   -64.00000000
   75.32770000     7.66230000   -65.10000000
   75.35610000     7.66700000   -66.20000000
   75.38440000     7.67170000   -63.30000000
   75.41280000     7.67640000   -56.20000000
   75.44120000     7.68110000   -49.30000000
   75.46960000     7.68580000   -50.30000000
   75.49800000     7.69050000   -53.50000000
   75.52690000     7.69520000   -49.10000000
   75.55660000     7.69970000   -45.30000000
   75.58630000     7.70430000   -41.30000000
   75.61590000     7.70890000   -39.30000000
   75.64590000     7.71350000   -37.80000000
   75.67580000     7.71810000   -41.00000000
   75.70570000     7.72270000   -45.10000000
   75.73560000     7.72730000   -48.30000000
   75.76550000     7.73190000   -52.50000000
   75.79550000     7.73650000   -53.60000000
   75.82540000     7.74110000   -52.80000000
   75.85530000     7.74570000   -50.80000000
   75.88520000     7.75030000   -50.80000000
   75.91520000     7.75490000   -51.00000000
   75.94510000     7.75950000   -45.00000000
   75.97500000     7.76410000   -39.00000000
   76.00480000     7.76870000   -38.50000000
   76.03450000     7.77330000   -42.80000000
   76.06430000     7.77780000   -45.80000000
   76.09400000     7.78240000   -50.00000000
   76.12340000     7.78730000   -54.50000000
   76.15260000     7.79220000   -55.80000000
   76.18190000     7.79710000   -57.80000000
   76.21120000     7.80200000   -60.00000000
   76.24040000     7.80700000   -61.10000000
   76.26970000     7.81190000   -64.40000000
   76.29890000     7.81680000   -65.50000000
   76.32820000     7.82170000   -65.70000000
   76.35740000     7.82660000   -63.80000000
   76.38660000     7.83150000   -60.80000000
   76.41580000     7.83650000   -59.00000000
   76.44500000     7.84140000   -56.00000000
   76.47490000     7.84670000   -50.80000000
   76.50540000     7.85230000   -46.00000000
   76.53580000     7.85790000   -42.00000000
   76.56620000     7.86350000   -36.00000000
   76.59670000     7.86910000   -21.90000000
   76.62710000     7.87470000   -17.90000000
   76.63620000     7.87640000   -14.90000000
   76.64230000     7.87750000    -7.90000000
   76.65750000     7.88030000     2.30000000
   76.68800000     7.88590000    24.50000000
   76.71840000     7.89160000    34.80000000
   76.74890000     7.89720000    37.60000000
   76.77950000     7.90260000    41.30000000
   76.81020000     7.90710000    46.30000000
   76.84100000     7.91170000    49.10000000
   76.87170000     7.91620000    50.00000000
   76.90240000     7.92080000    47.80000000
   76.93310000     7.92530000    43.50000000
   76.96380000     7.92980000    36.30000000
   76.99450000     7.93440000    22.00000000
   77.02510000     7.93890000     7.70000000
   77.05580000     7.94340000    -1.80000000
   77.08650000     7.94800000   -12.10000000
   77.11720000     7.95250000   -15.20000000
   77.19900000     7.90180000   -16.50000000
   77.22950000     7.88160000   -16.10000000
   77.24580000     7.87140000   -15.90000000
   77.26200000     7.86130000   -14.70000000
   77.27820000     7.85120000   -14.40000000
   77.29440000     7.84110000   -15.20000000
   77.31060000     7.83100000   -15.90000000
   77.33030000     7.81780000   -14.90000000
   77.35520000     7.79990000   -17.50000000
   77.38010000     7.78200000   -16.00000000
   77.40500000     7.76410000   -14.70000000
   77.42980000     7.74600000   -15.20000000
   77.45440000     7.72780000   -13.70000000
   77.43910000     7.70580000   -11.80000000
   77.42080000     7.69710000   -14.70000000
   77.40240000     7.68850000   -14.40000000
   77.38410000     7.67990000   -15.30000000
   77.36570000     7.67130000   -17.00000000
   77.34740000     7.66260000   -13.90000000
   77.32900000     7.65400000   -12.60000000
   77.31070000     7.64540000   -12.40000000
   77.29230000     7.63680000   -11.20000000
   77.27420000     7.62720000    -9.90000000
   77.25620000     7.61700000    -7.80000000
   77.23830000     7.60680000    -8.40000000
   77.22030000     7.59670000    -8.30000000
   77.20230000     7.58650000    -8.10000000
   77.18430000     7.57630000    -4.80000000
   77.16630000     7.56610000    -1.40000000
   77.14830000     7.55590000     1.90000000
   77.13040000     7.54570000     6.20000000
   77.11240000     7.53550000    11.60000000
   77.09440000     7.52530000    19.90000000
   77.07640000     7.51510000    27.30000000
   77.05840000     7.50490000    35.80000000
   77.03880000     7.49690000    42.60000000
   77.01910000     7.48890000    44.80000000
   76.99940000     7.48090000    50.10000000
   76.97980000     7.47280000    51.30000000
   76.96010000     7.46480000    51.50000000
   76.94030000     7.45680000    51.50000000
   76.92020000     7.44880000    53.80000000
   76.90010000     7.44080000    52.00000000
   76.88000000     7.43280000    51.00000000
   76.85980000     7.42480000    53.30000000
   76.83970000     7.41680000    41.30000000
   76.81960000     7.40870000    24.10000000
   76.80080000     7.40110000     4.30000000
   76.78190000     7.39340000   -16.00000000
   76.76310000     7.38570000   -26.00000000
   76.74420000     7.37810000   -34.00000000
   76.72480000     7.37080000   -43.50000000
   76.70490000     7.36390000   -43.50000000
   76.68510000     7.35690000   -49.30000000
   76.66520000     7.35000000   -52.30000000
   76.64540000     7.34300000   -55.10000000
   76.62560000     7.34020000   -58.10000000
   76.60570000     7.33740000   -58.00000000
   76.58590000     7.33460000   -60.00000000
   76.56610000     7.33180000   -59.00000000
   76.54630000     7.32900000   -57.80000000
   76.52640000     7.32620000   -56.80000000
   76.50660000     7.32340000   -57.80000000
   76.48680000     7.32060000   -58.60000000
   76.46690000     7.31780000   -57.50000000
   76.44530000     7.31460000   -61.50000000
   76.42360000     7.31130000   -61.50000000
   76.40190000     7.30790000   -60.30000000
   76.38020000     7.30450000   -58.30000000
   76.35840000     7.30110000   -57.10000000
   76.33670000     7.29780000   -52.00000000
   76.31500000     7.29440000   -46.80000000
   76.29330000     7.29100000   -44.80000000
   76.27160000     7.28760000   -38.50000000
   76.24990000     7.28430000   -35.30000000
   76.22820000     7.28090000   -34.30000000
   76.20650000     7.27750000   -32.10000000
   76.23750000     7.19590000   -38.00000000
   76.24760000     7.16940000   -38.50000000
   76.25750000     7.14340000   -39.80000000
   76.26750000     7.11750000   -39.30000000
   76.27740000     7.09150000   -40.80000000
   76.28730000     7.06550000   -42.30000000
   76.29720000     7.03950000   -42.60000000
   76.30720000     7.01350000   -43.10000000
   76.31710000     6.98760000   -43.50000000
   76.38890000     6.96950000   -45.30000000
   76.41990000     6.97340000   -47.30000000
   76.45090000     6.97740000   -50.50000000
   76.48180000     6.98140000   -52.60000000
   76.51280000     6.98530000   -53.80000000
   76.54380000     6.98930000   -57.80000000
   76.57470000     6.99320000   -60.00000000
   76.60570000     6.99720000   -61.10000000
   76.66760000     7.00510000   -57.30000000
   76.69840000     7.00870000   -56.00000000
   76.72920000     7.01220000   -55.80000000
   76.76010000     7.01560000   -55.80000000
   76.79090000     7.01900000   -56.00000000
   76.82170000     7.02250000   -55.00000000
   76.85250000     7.02590000   -54.00000000
   76.88340000     7.02940000   -51.00000000
   76.91420000     7.03280000   -48.10000000
   76.94500000     7.03620000   -45.10000000
   76.97580000     7.03970000   -42.10000000
   77.00670000     7.04310000   -41.30000000
   77.03750000     7.04650000   -39.30000000
   77.06830000     7.05000000   -34.30000000
   77.09870000     7.05340000   -25.30000000
   77.12910000     7.05670000   -12.20000000
   77.15950000     7.06010000     0.20000000
   77.17470000     7.06180000     9.30000000
   77.18990000     7.06350000    16.30000000
   77.20510000     7.06520000    21.30000000
   77.28120000     7.07360000    33.50000000
   77.31170000     7.07620000    31.00000000
   77.35770000     7.07920000    24.80000000
   77.37300000     7.08020000    21.80000000
   77.40360000     7.08220000    15.70000000
   77.43430000     7.08420000    13.60000000
   77.46450000     7.08860000    10.40000000
   77.49480000     7.09300000     9.40000000
   77.52510000     7.09750000     8.30000000
   77.55540000     7.10190000     8.20000000
   77.58570000     7.10630000     8.10000000
   77.61600000     7.11070000     5.90000000
   77.64630000     7.11520000     1.80000000
   77.67650000     7.11960000    -4.60000000
   77.70680000     7.12400000   -12.90000000
   77.75300000     7.13040000   -20.80000000
   77.76860000     7.13250000   -44.30000000
   77.79970000     7.13670000   -56.60000000
   77.83070000     7.14090000   -66.40000000
   77.86170000     7.14500000   -71.60000000
   77.89270000     7.14920000   -76.80000000
   77.92370000     7.15340000   -83.00000000
   77.95470000     7.15750000   -85.10000000
   77.98560000     7.16170000   -88.30000000
   78.01660000     7.16580000   -89.40000000
   78.04760000     7.17000000   -89.50000000
   78.07830000     7.17420000   -90.80000000
   78.10890000     7.17850000   -90.90000000
   78.13940000     7.18280000   -92.00000000
   78.16990000     7.18700000   -90.00000000
   78.20020000     7.19130000   -88.90000000
   78.23040000     7.19550000   -86.90000000
   78.26070000     7.19970000   -86.00000000
   78.29090000     7.20390000   -84.10000000
   78.32120000     7.20810000   -83.10000000
   78.35140000     7.21230000   -83.20000000
   78.38170000     7.21650000   -82.30000000
   78.41190000     7.22070000   -82.40000000
   78.44220000     7.22490000   -81.50000000
   78.47240000     7.22910000   -80.60000000
   78.50270000     7.23330000   -78.60000000
   78.53290000     7.23760000   -76.70000000
   78.53310000     7.18180000   -78.30000000
   78.53320000     7.16330000   -76.90000000
   78.53330000     7.14470000   -76.50000000
   78.53330000     7.12610000   -77.10000000
   78.53330000     7.10720000   -78.90000000
   78.53330000     7.08820000   -79.50000000
   78.53330000     7.06920000   -80.10000000
   78.53380000     7.04980000   -78.70000000
   78.53450000     7.03010000   -78.20000000
   78.53530000     7.01040000   -77.80000000
   78.53600000     6.99070000   -77.40000000
   78.53680000     6.97100000   -75.90000000
   78.53750000     6.95120000   -73.50000000
   78.53740000     6.92650000   -72.80000000
   78.53660000     6.89840000   -71.20000000
   78.53590000     6.87040000   -70.60000000
   78.53510000     6.84230000   -68.00000000
   78.49620000     6.81780000   -66.80000000
   78.47460000     6.80720000   -67.60000000
   78.45310000     6.79670000   -67.40000000
   78.43150000     6.78620000   -70.20000000
   78.41000000     6.77570000   -72.00000000
   78.38840000     6.76520000   -73.80000000
   78.36680000     6.75470000   -75.70000000
   78.34530000     6.74420000   -75.40000000
   78.32400000     6.73330000   -75.10000000
   78.30280000     6.72220000   -74.70000000
   78.28190000     6.71110000   -73.90000000
   78.26100000     6.70000000   -73.70000000
   78.24010000     6.68900000   -73.50000000
   78.21920000     6.67790000   -75.30000000
   78.19830000     6.66690000   -74.00000000
   78.17740000     6.65580000   -72.80000000
   78.15650000     6.64470000   -72.60000000
   78.13560000     6.63370000   -74.40000000
   78.11470000     6.62260000   -75.20000000
   78.09380000     6.61160000   -77.00000000
   78.07290000     6.60050000   -79.80000000
   78.05200000     6.58940000   -82.60000000
   78.03090000     6.57830000   -86.80000000
   78.00910000     6.56730000   -91.90000000
   77.98610000     6.55640000   -91.70000000
   77.96300000     6.54550000   -90.50000000
   77.94000000     6.53450000   -87.20000000
   77.91700000     6.52360000   -80.90000000
   77.89320000     6.51580000   -77.50000000
   77.86950000     6.50790000   -74.30000000
   77.84580000     6.50000000   -69.00000000
   77.82210000     6.49210000   -68.70000000
   77.79840000     6.48430000   -64.60000000
   77.77460000     6.47640000   -60.30000000
   77.75090000     6.46850000   -60.10000000
   77.72720000     6.46070000   -59.00000000
   77.70350000     6.45280000   -56.80000000
   77.67970000     6.44490000   -54.60000000
   77.65570000     6.43760000   -51.30000000
   77.63170000     6.43050000   -49.00000000
   77.60710000     6.42320000   -47.50000000
   77.58240000     6.41590000   -45.30000000
   77.55780000     6.40860000   -43.10000000
   77.53320000     6.40140000   -42.00000000
   77.50850000     6.39410000   -40.80000000
   77.48390000     6.38680000   -40.60000000
   77.45930000     6.37950000   -41.50000000
   77.43460000     6.37230000   -41.30000000
   77.41000000     6.36500000   -42.30000000
   77.38490000     6.35810000   -42.30000000
   77.35990000     6.35120000   -41.00000000
   77.33480000     6.34430000   -41.00000000
   77.31010000     6.33560000   -41.00000000
   77.28530000     6.32690000   -40.80000000
   77.26060000     6.31820000   -39.50000000
   77.23590000     6.30950000   -38.30000000
   77.21110000     6.30070000   -38.30000000
   77.18640000     6.29200000   -38.00000000
   77.16170000     6.28330000   -37.80000000
   77.13780000     6.27420000   -35.30000000
   77.11400000     6.26510000   -36.10000000
   77.09010000     6.25600000   -37.00000000
   77.06630000     6.24690000   -36.80000000
   77.04240000     6.23780000   -36.60000000
   77.01830000     6.22860000   -39.50000000
   76.99410000     6.21940000   -39.30000000
   76.96990000     6.21020000   -37.00000000
   76.94570000     6.20100000   -36.80000000
   76.92150000     6.19180000   -37.80000000
   76.89720000     6.18330000   -38.00000000
   76.87280000     6.17500000   -36.80000000
   76.84840000     6.16670000   -40.80000000
   76.82410000     6.15840000   -41.60000000
   76.79970000     6.15010000   -41.50000000
   76.77540000     6.14170000   -41.30000000
   76.75100000     6.13340000   -40.10000000
   76.72670000     6.12510000   -41.00000000
   76.70230000     6.11680000   -39.80000000
   76.67800000     6.10850000   -36.50000000
   76.65360000     6.10010000   -36.50000000
   76.62930000     6.09180000   -35.30000000
   76.60490000     6.08350000   -35.00000000
   76.58130000     6.07350000   -32.80000000
   76.55770000     6.06340000   -32.80000000
   76.53410000     6.05340000   -33.50000000
   76.51050000     6.04340000   -33.30000000
   76.48690000     6.03340000   -34.10000000
   76.46330000     6.02330000   -36.00000000
   76.43950000     6.01270000   -37.50000000
   76.41560000     6.00200000   -37.30000000
   76.39180000     5.99140000   -37.10000000
   76.36800000     5.98020000   -36.80000000
   76.34420000     5.96910000   -34.50000000
   76.32040000     5.95800000   -35.30000000
   76.29660000     5.94680000   -35.10000000
   76.27280000     5.93570000   -36.00000000
   76.24910000     5.92460000   -40.80000000
   76.22530000     5.91340000   -43.60000000
   76.20150000     5.90230000   -44.50000000
   76.21250000     5.86250000   -51.00000000
   76.22110000     5.84650000   -53.80000000
   76.22960000     5.83050000   -54.50000000
   76.23820000     5.81450000   -54.10000000
   76.24670000     5.79850000   -54.00000000
   76.25530000     5.78250000   -54.60000000
   76.26380000     5.76650000   -53.30000000
   76.27240000     5.75060000   -53.00000000
   76.28090000     5.73460000   -52.80000000
   76.28950000     5.71860000   -51.50000000
   76.29800000     5.70260000   -51.10000000
   76.30650000     5.68660000   -50.80000000
   76.31490000     5.67100000   -52.10000000
   76.32330000     5.65540000   -51.80000000
   76.33160000     5.63980000   -51.50000000
   76.34000000     5.62420000   -51.30000000
   76.34860000     5.60870000   -47.10000000
   76.35840000     5.59370000   -46.00000000
   76.36820000     5.57870000   -46.50000000
   76.37810000     5.56370000   -47.30000000
   76.38790000     5.54870000   -47.00000000
   76.39770000     5.53370000   -47.80000000
   76.40760000     5.51870000   -46.50000000
   76.41740000     5.50370000   -45.30000000
   76.42720000     5.48870000   -46.00000000
   76.43710000     5.47370000   -47.80000000
   76.46370000     5.43000000   -45.80000000
   76.47860000     5.40520000   -46.50000000
   76.49340000     5.38040000   -49.00000000
   76.50830000     5.35560000   -49.60000000
   76.52310000     5.33080000   -48.30000000
   76.53800000     5.30600000   -47.80000000
   76.55280000     5.28120000   -46.30000000
   76.63880000     5.30760000   -39.80000000
   76.66730000     5.31740000   -39.00000000
   76.69580000     5.32720000   -38.10000000
   76.72430000     5.33700000   -35.30000000
   76.75290000     5.34680000   -32.30000000
   76.78140000     5.35660000   -29.40000000
   76.81030000     5.36660000   -28.60000000
   76.83920000     5.37650000   -28.80000000
   76.86810000     5.38650000   -29.90000000
   76.89700000     5.39640000   -31.10000000
   76.92590000     5.40630000   -33.30000000
   76.95320000     5.41570000   -39.80000000
   76.98020000     5.42480000   -38.80000000
   77.00720000     5.43400000   -38.00000000
   77.03410000     5.44310000   -37.10000000
   77.06110000     5.45220000   -38.30000000
   77.08800000     5.46140000   -36.50000000
   77.11500000     5.47050000   -37.50000000
   77.14220000     5.47800000   -36.30000000
   77.17010000     5.48490000   -36.50000000
   77.19800000     5.49180000   -37.50000000
   77.22580000     5.49870000   -35.60000000
   77.25370000     5.50560000   -33.80000000
   77.28160000     5.51250000   -31.80000000
   77.30970000     5.51940000   -27.30000000
   77.33780000     5.52640000   -24.30000000
   77.36590000     5.53330000   -26.50000000
   77.39400000     5.54030000   -27.60000000
   77.42210000     5.54720000   -28.80000000
   77.44980000     5.55520000   -28.40000000
   77.47720000     5.56390000   -25.90000000
   77.50460000     5.57260000   -26.00000000
   77.53200000     5.58130000   -25.10000000
   77.55940000     5.59000000   -23.30000000
   77.58670000     5.59860000   -21.40000000
   77.61410000     5.60730000   -24.60000000
   77.64150000     5.61600000   -26.80000000
   77.66890000     5.62470000   -26.90000000
   77.69630000     5.63340000   -27.10000000
   77.72370000     5.64200000   -26.30000000
   77.75100000     5.65070000   -24.30000000
   77.77840000     5.65940000   -22.40000000
   77.80550000     5.66800000   -23.30000000
   77.83270000     5.67660000   -24.50000000
   77.85980000     5.68520000   -25.80000000
   77.87330000     5.68950000   -34.00000000
   77.90050000     5.69810000   -49.30000000
   77.91400000     5.70240000   -54.50000000
   77.94110000     5.71100000   -64.90000000
   77.96830000     5.71960000   -75.20000000
   77.99540000     5.72820000   -81.50000000
   78.02250000     5.73640000   -87.90000000
   78.04950000     5.74410000   -90.10000000
   78.07660000     5.75180000   -91.20000000
   78.10370000     5.75960000   -92.40000000
   78.13120000     5.76640000   -93.20000000
   78.15880000     5.77320000   -91.30000000
   78.18630000     5.78010000   -88.40000000
   78.21390000     5.78690000   -87.50000000
   78.24140000     5.79380000   -85.60000000
   78.26900000     5.80060000   -82.70000000
   78.29630000     5.80740000   -81.60000000
   78.32360000     5.81410000   -79.70000000
   78.35080000     5.82080000   -79.80000000
   78.37810000     5.82750000   -77.90000000
   78.40530000     5.83430000   -77.00000000
   78.43260000     5.84100000   -76.10000000
   78.45960000     5.84760000   -76.70000000
   78.48670000     5.85430000   -80.90000000
   78.51380000     5.86100000   -88.10000000
   78.54130000     5.86730000   -90.90000000
   78.56970000     5.87290000   -95.10000000
   78.59800000     5.87850000   -98.30000000
   78.62640000     5.88420000  -100.40000000
   78.65470000     5.88980000  -103.60000000
   78.68310000     5.89540000  -105.70000000
   78.73520000     5.83810000  -110.10000000
   78.75010000     5.81270000  -111.70000000
