   67.54381000    19.08546000     3.70000000
   67.52509000    19.07053000     4.50000000
   67.50637000    19.05559000     4.40000000
   67.48765000    19.04065000     4.20000000
   67.46895000    19.02571000     4.00000000
   67.45024000    19.01078000     4.80000000
   67.43154000    18.99584000     6.60000000
   67.41284000    18.98090000     8.50000000
   67.39413000    18.96597000     9.30000000
   67.37469000    18.95071000    10.20000000
   67.35510000    18.93550000    11.80000000
   67.33551000    18.92030000    12.70000000
   67.31592000    18.90509000    14.50000000
   67.29633000    18.88988000    15.40000000
   67.27674000    18.87467000    13.20000000
   67.25715000    18.85946000    12.00000000
   67.23756000    18.84426000    11.80000000
   67.21797000    18.82905000    10.60000000
   67.19837000    18.81384000     9.40000000
   67.19714000    18.78966000    10.40000000
   67.19662000    18.76556000    11.50000000
   67.19656000    18.74151000    11.80000000
   67.19651000    18.71747000    11.10000000
   67.19646000    18.69342000    11.40000000
   67.19640000    18.66937000     9.70000000
   67.19635000    18.64532000     7.90000000
   67.19629000    18.62127000     9.20000000
   67.19624000    18.59722000     6.50000000
   67.19617000    18.57273000     4.70000000
   67.19610000    18.54825000     5.00000000
   67.19603000    18.52376000     2.30000000
   67.19596000    18.49928000     0.60000000
   67.19589000    18.47479000     0.90000000
   67.19582000    18.45031000    -0.90000000
   67.19575000    18.42582000    -2.60000000
   67.19568000    18.40134000    -3.30000000
   67.19561000    18.37685000    -5.00000000
   67.19555000    18.35237000    -5.70000000
   67.19548000    18.32788000    -5.40000000
   67.19541000    18.30340000    -7.20000000
   67.19532000    18.27838000    -9.90000000
   67.19522000    18.25337000   -10.60000000
   67.19513000    18.22835000   -12.30000000
   67.19504000    18.20334000   -15.10000000
   67.19492000    18.17830000   -17.00000000
   67.19474000    18.15323000   -17.70000000
   67.19459000    18.12860000   -20.40000000
   67.19444000    18.10397000   -21.10000000
   67.19430000    18.07933000   -23.90000000
   67.19415000    18.05470000   -26.60000000
   67.19401000    18.03007000   -28.40000000
   67.19386000    18.00544000   -31.30000000
   67.19372000    17.98081000   -35.10000000
   67.28120000    17.98838000   -28.70000000
   67.30844000    17.99686000   -26.10000000
   67.33568000    18.00534000   -23.50000000
   67.36292000    18.01382000   -20.90000000
   67.39017000    18.02230000   -18.30000000
   67.41741000    18.03078000   -10.60000000
   67.44465000    18.03927000    -7.00000000
   67.47190000    18.04775000    -4.40000000
   67.49924000    18.05625000    -1.60000000
   67.52659000    18.06476000    -1.10000000
   67.55393000    18.07327000     0.50000000
   67.58128000    18.08178000     1.10000000
   67.60862000    18.09028000     1.70000000
   67.63597000    18.09879000     5.30000000
   67.66532000    18.10788000     9.60000000
   67.69467000    18.11697000    10.20000000
   67.72402000    18.12606000     9.70000000
   67.75338000    18.13515000     8.20000000
   67.78273000    18.14424000     7.70000000
   67.81208000    18.15333000     7.20000000
   67.84143000    18.16242000     6.70000000
   67.87079000    18.17151000     6.20000000
   67.89974000    18.17922000     4.60000000
   67.92860000    18.18658000     4.20000000
   67.95745000    18.19394000     4.80000000
   67.98631000    18.20130000     3.40000000
   68.01532000    18.20871000     2.40000000
   68.04433000    18.21612000     0.90000000
   68.07335000    18.22352000    -1.50000000
   68.10236000    18.23093000    -2.90000000
   68.17548000    18.20826000    -9.80000000
   68.18697000    18.21026000   -13.00000000
   68.24454000    18.22523000    -6.00000000
   68.25877000    18.22917000    -6.20000000
   68.28723000    18.23703000    -5.60000000
   68.31522000    18.24479000   -10.60000000
   68.34138000    18.25212000   -10.00000000
   68.36754000    18.25945000   -10.40000000
   68.39369000    18.26678000   -12.80000000
   68.42017000    18.27422000   -11.40000000
   68.44665000    18.28166000   -10.80000000
   68.47449000    18.28890000    -7.90000000
   68.50234000    18.29613000    -7.30000000
   68.53018000    18.30337000    -6.70000000
   68.55802000    18.31061000    -7.00000000
   68.58586000    18.31784000    -7.40000000
   68.61371000    18.32508000    -7.80000000
   68.64155000    18.33232000    -8.20000000
   68.66939000    18.33955000    -8.60000000
   68.69723000    18.34679000    -9.00000000
   68.72508000    18.35403000    -9.30000000
   68.75272000    18.36174000   -11.10000000
   68.78039000    18.37028000   -11.60000000
   68.87224000    18.39693000   -13.20000000
   68.90027000    18.40560000   -15.70000000
   68.92831000    18.41426000   -17.20000000
   68.95634000    18.42293000   -19.70000000
   68.98438000    18.43159000   -21.20000000
   69.01184000    18.44081000   -24.50000000
   69.03889000    18.45008000   -29.70000000
   69.06595000    18.45935000   -32.20000000
   69.09301000    18.46862000   -35.70000000
   69.11963000    18.47876000   -40.00000000
   69.14561000    18.49020000   -44.70000000
   69.17159000    18.50164000   -49.30000000
   69.19756000    18.51308000   -52.00000000
   69.22354000    18.52452000   -56.70000000
   69.24952000    18.53595000   -59.30000000
   69.27549000    18.54739000   -60.00000000
   69.30147000    18.55883000   -58.50000000
   69.32745000    18.57027000   -58.10000000
   69.35332000    18.58166000   -57.00000000
   69.37918000    18.59349000   -57.70000000
   69.40504000    18.60532000   -58.40000000
   69.43091000    18.61714000   -60.00000000
   69.45677000    18.62897000   -60.70000000
   69.48263000    18.64080000   -61.30000000
   69.50849000    18.65263000   -63.00000000
   69.58697000    18.68929000   -65.00000000
   69.61326000    18.70131000   -64.70000000
   69.63955000    18.71332000   -64.30000000
   69.66584000    18.72533000   -61.90000000
   69.69213000    18.73734000   -57.50000000
   69.71842000    18.74935000   -54.10000000
   69.74471000    18.76136000   -48.70000000
   69.77100000    18.77337000   -44.20000000
   69.79729000    18.78538000   -36.80000000
   69.82377000    18.79732000   -26.00000000
   69.85101000    18.80790000   -18.50000000
   69.87826000    18.81848000   -13.00000000
   69.90550000    18.82906000    -8.50000000
   69.93274000    18.83964000    -7.00000000
   69.95998000    18.85022000    -4.60000000
   69.98722000    18.86080000    -1.10000000
   70.01447000    18.87138000     3.40000000
   70.04171000    18.88196000     8.90000000
   70.06895000    18.89254000    20.50000000
   70.09623000    18.90313000    28.10000000
   70.12351000    18.91372000    31.60000000
   70.15080000    18.92431000    33.00000000
   70.17808000    18.93490000    34.50000000
   70.20536000    18.94548000    33.90000000
   70.23264000    18.95607000    30.20000000
   70.25992000    18.96666000    26.60000000
   70.28721000    18.97725000    26.00000000
   70.31449000    18.98784000    24.40000000
   70.34177000    18.99843000    24.80000000
   70.36905000    19.00901000    19.20000000
   70.39634000    19.01960000    16.60000000
   70.44254000    19.03742000    10.40000000
   70.46980000    19.04800000     4.70000000
   70.49706000    19.05857000     2.10000000
   70.52431000    19.06914000     1.50000000
   70.57396000    19.08832000     3.80000000
   70.60095000    19.09879000     7.30000000
   70.62794000    19.10925000     9.70000000
   70.65493000    19.11971000     7.10000000
   70.68192000    19.13017000     6.50000000
   70.70891000    19.14063000    -4.20000000
   70.73586000    19.15107000   -10.00000000
   70.76282000    19.16151000   -15.70000000
   70.78977000    19.17195000   -20.30000000
   70.81672000    19.18239000   -27.00000000
   70.84368000    19.19283000   -31.70000000
   70.87063000    19.20327000   -35.30000000
   70.89758000    19.21372000   -42.00000000
   70.92454000    19.22416000   -46.60000000
   70.95149000    19.23460000   -50.30000000
   70.97844000    19.24504000   -52.90000000
   71.00540000    19.25548000   -54.50000000
   71.03235000    19.26592000   -56.10000000
   71.05959000    19.27647000   -56.10000000
   71.08682000    19.28701000   -59.70000000
   71.11406000    19.29756000   -62.30000000
   71.14129000    19.30810000   -63.90000000
   71.16853000    19.31865000   -66.60000000
   71.19577000    19.32919000   -67.20000000
   71.22331000    19.33986000   -66.00000000
   71.25086000    19.35053000   -64.60000000
   71.27841000    19.36119000   -63.20000000
   71.30596000    19.37186000   -61.80000000
   71.33350000    19.38253000   -60.30000000
   71.36105000    19.39319000   -61.90000000
   71.38860000    19.40386000   -60.50000000
   71.41615000    19.41453000   -58.10000000
   71.44294000    19.42335000   -59.80000000
   71.46955000    19.43171000   -59.30000000
   71.49617000    19.44007000   -57.70000000
   71.55503000    19.45674000   -45.70000000
   71.58153000    19.46506000   -41.10000000
   71.60804000    19.47337000   -33.50000000
   71.63455000    19.48169000   -26.80000000
   71.66105000    19.49000000   -19.20000000
   71.68895000    19.49811000     0.10000000
   71.72487000    19.47176000     0.10000000
   71.73558000    19.44450000    -0.40000000
   71.74630000    19.41723000    -6.00000000
   71.75701000    19.38997000   -11.60000000
   71.76772000    19.36270000   -18.20000000
   71.77658000    19.34052000   -23.80000000
   71.78358000    19.32342000   -25.90000000
   71.78990000    19.30814000   -32.10000000
   71.79604000    19.29331000   -36.40000000
   71.80218000    19.27849000   -37.60000000
   71.80832000    19.26366000   -40.80000000
   71.81446000    19.24884000   -40.00000000
   71.82059000    19.23402000   -40.20000000
   71.82673000    19.21919000   -39.30000000
   71.83287000    19.20437000   -38.50000000
   71.83901000    19.18954000   -36.70000000
   71.84500000    19.17512000   -36.20000000
   71.85099000    19.16069000   -35.40000000
   71.85698000    19.14626000   -33.60000000
   71.86443000    19.12780000   -30.80000000
   71.87410000    19.10329000   -31.50000000
   71.88377000    19.07878000   -31.10000000
   71.89370000    19.05353000   -31.10000000
   71.90386000    19.02836000   -26.00000000
   71.91487000    19.00351000   -21.60000000
   71.92589000    18.97866000   -21.20000000
   71.93690000    18.95382000   -19.90000000
   71.94792000    18.92897000   -19.50000000
   71.95894000    18.90412000   -18.10000000
   71.96995000    18.87927000   -18.80000000
   71.98097000    18.85443000   -16.40000000
   71.99261000    18.82782000   -14.40000000
   71.96036000    18.80461000   -18.70000000
   71.94076000    18.79439000   -22.80000000
   71.91965000    18.78304000   -21.10000000
   71.89853000    18.77169000   -21.50000000
   71.87742000    18.76035000   -18.90000000
   71.85630000    18.74900000   -19.30000000
   71.83518000    18.73765000   -17.60000000
   71.81429000    18.72640000   -14.50000000
   71.79339000    18.71516000   -12.80000000
   71.77250000    18.70391000    -7.10000000
   71.75183000    18.69203000    -4.80000000
   71.73123000    18.68000000    -3.10000000
   71.71062000    18.66797000    -3.50000000
   71.69001000    18.65594000    -4.90000000
   71.66940000    18.64391000    -6.30000000
   71.64879000    18.63187000    -7.60000000
   71.62819000    18.61984000    -6.00000000
   71.60758000    18.60781000    -5.30000000
   71.58697000    18.59578000    -4.70000000
   71.56647000    18.58379000    -2.80000000
   71.54597000    18.57180000    -1.10000000
   71.52547000    18.55982000     0.60000000
   71.50497000    18.54783000     2.20000000
   71.48446000    18.53584000     0.80000000
   71.46396000    18.52385000     0.50000000
   71.44341000    18.51182000     3.80000000
   71.42277000    18.49970000     3.50000000
   71.40214000    18.48759000     4.10000000
   71.38123000    18.47702000     0.90000000
   71.36032000    18.46646000     2.50000000
   71.33941000    18.45590000     2.10000000
   71.31850000    18.44534000    -0.40000000
   71.29759000    18.43478000     0.20000000
   71.27668000    18.42422000     2.80000000
   71.25625000    18.41434000     4.20000000
   71.23614000    18.40491000     3.70000000
   71.21603000    18.39548000     3.20000000
   71.19590000    18.38604000    -0.40000000
   71.17577000    18.37661000     0.10000000
   71.15564000    18.36717000    -0.40000000
   71.13551000    18.35774000     0.10000000
   71.11538000    18.34830000    -0.40000000
   71.09525000    18.33887000     1.10000000
   71.07512000    18.32943000     0.60000000
   71.05499000    18.31999000     4.10000000
   71.03686000    18.31090000    10.50000000
   71.01873000    18.30181000    13.00000000
   71.00059000    18.29272000    15.50000000
   70.98246000    18.28363000    17.00000000
   70.96331000    18.27414000    17.00000000
   70.94417000    18.26466000    19.60000000
   70.92502000    18.25517000    20.10000000
   70.90587000    18.24569000    19.60000000
   70.84842000    18.21724000    20.10000000
   70.82928000    18.20775000    22.60000000
   70.81013000    18.19827000    24.10000000
   70.79098000    18.18878000    23.60000000
   70.77121000    18.17946000    22.60000000
   70.75103000    18.17024000    22.10000000
   70.73155000    18.16129000    24.20000000
   70.71206000    18.15234000    21.60000000
   70.69258000    18.14339000    23.10000000
   70.67310000    18.13444000    17.50000000
   70.65361000    18.12549000    12.90000000
   70.63413000    18.11654000     9.30000000
   70.61464000    18.10759000     4.70000000
   70.59516000    18.09863000     0.10000000
   70.57567000    18.08968000    -4.50000000
   70.55619000    18.08073000   -10.10000000
   70.53671000    18.07178000   -16.80000000
   70.51722000    18.06283000   -25.40000000
   70.49827000    18.05408000   -24.70000000
   70.47931000    18.04533000   -26.30000000
   70.46035000    18.03658000   -30.90000000
   70.44139000    18.02783000   -34.50000000
   70.42244000    18.01908000   -41.20000000
   70.40348000    18.01033000   -46.80000000
   70.38424000    18.00135000   -55.90000000
   70.36385000    17.99148000   -60.50000000
   70.34347000    17.98160000   -64.00000000
   70.32308000    17.97173000   -64.50000000
   70.30270000    17.96185000   -69.10000000
   70.28231000    17.95198000   -71.60000000
   70.22736000    17.92475000   -67.30000000
   70.20734000    17.91501000   -66.80000000
   70.18732000    17.90527000   -65.30000000
   70.16736000    17.89582000   -64.60000000
   70.14741000    17.88643000   -61.10000000
   70.12747000    17.87705000   -60.60000000
   70.10753000    17.86766000   -59.10000000
   70.08758000    17.85828000   -57.50000000
   70.06764000    17.84890000   -57.10000000
   70.04769000    17.83951000   -52.50000000
   70.02766000    17.83009000   -49.20000000
   70.00764000    17.82067000   -48.70000000
   69.98761000    17.81126000   -45.20000000
   69.96758000    17.80184000   -40.60000000
   69.92728000    17.70912000   -36.60000000
   69.90649000    17.69902000   -35.00000000
   69.88570000    17.68893000   -30.40000000
   69.86491000    17.67883000   -28.90000000
   69.84412000    17.66873000   -28.40000000
   69.82333000    17.65863000   -22.70000000
   69.80319000    17.64878000   -20.70000000
   69.78305000    17.63893000   -19.10000000
   69.76309000    17.62895000   -17.90000000
   69.74327000    17.61888000   -17.40000000
   69.72344000    17.60881000   -17.90000000
   69.70361000    17.59874000   -13.30000000
   69.68379000    17.58868000   -12.70000000
   69.66396000    17.57861000   -13.20000000
   69.64413000    17.56854000   -13.70000000
   69.62430000    17.55847000   -13.20000000
   69.60448000    17.54840000   -12.70000000
   69.58465000    17.53833000   -12.20000000
   69.56498000    17.52833000   -10.30000000
   69.54514000    17.51971000   -11.30000000
   69.52530000    17.51109000   -10.80000000
   69.50545000    17.50247000   -10.40000000
   69.48561000    17.49385000   -10.00000000
   69.46577000    17.48523000   -10.50000000
   69.44697000    17.47701000    -8.60000000
   69.42817000    17.46880000    -9.20000000
   69.40937000    17.46058000    -8.70000000
   69.39092000    17.45250000   -10.50000000
   69.37247000    17.44441000   -14.20000000
   69.35402000    17.43633000   -14.80000000
   69.33557000    17.42825000   -15.40000000
   69.31747000    17.42030000   -13.30000000
   69.29972000    17.41248000    -5.80000000
   69.28196000    17.40466000    -8.40000000
   69.26420000    17.39685000   -10.00000000
   69.24645000    17.38903000    -9.60000000
   69.22663000    17.38041000   -16.30000000
   69.20681000    17.37180000   -18.90000000
   69.18700000    17.36318000   -20.50000000
   69.16718000    17.35457000   -22.10000000
   69.14736000    17.34595000   -24.70000000
   69.12754000    17.33734000   -23.30000000
   69.10773000    17.32872000   -21.80000000
   69.08791000    17.32010000   -20.40000000
   69.06804000    17.31117000   -19.10000000
   69.04813000    17.30201000   -17.70000000
   69.02823000    17.29286000    -8.00000000
   69.00832000    17.28370000    -5.50000000
   68.98856000    17.27460000    -5.80000000
   68.96880000    17.26550000    -5.30000000
   68.94904000    17.25640000    -9.90000000
   68.92927000    17.24730000   -12.50000000
   68.90951000    17.23819000   -16.10000000
   68.88975000    17.22909000   -18.70000000
   68.86999000    17.21999000   -18.20000000
   68.85069000    17.21010000   -17.60000000
   68.83140000    17.20021000   -14.10000000
   68.81210000    17.19032000   -12.50000000
   68.79281000    17.18043000   -12.00000000
   68.77351000    17.17054000   -11.50000000
   68.75371000    17.16045000   -11.30000000
   68.73390000    17.15036000    -8.80000000
   68.71410000    17.14027000    -7.20000000
   68.69430000    17.13018000    -5.70000000
   68.67449000    17.12009000    -2.20000000
   68.65469000    17.11001000    -0.60000000
   68.63489000    17.09992000    -0.10000000
   68.61508000    17.08983000     0.40000000
   68.59528000    17.07974000     0.90000000
   68.57548000    17.06965000     0.40000000
   68.55567000    17.05956000     1.90000000
   68.53587000    17.04947000     0.40000000
   68.51620000    17.03943000    -2.90000000
   68.49654000    17.02939000    -3.40000000
   68.47687000    17.01935000    -0.90000000
   68.45721000    17.00931000    -0.30000000
   68.43754000    16.99927000    -3.90000000
   68.41788000    16.98924000    -5.40000000
   68.39822000    16.97920000    -5.90000000
   68.37855000    16.96916000    -6.50000000
   68.35889000    16.95912000   -10.00000000
   68.33922000    16.94908000   -12.60000000
   68.31956000    16.93904000   -17.10000000
   68.29989000    16.92900000   -17.70000000
   68.28011000    16.91891000   -22.60000000
   68.26032000    16.90882000   -26.10000000
   68.24054000    16.89873000   -26.70000000
   68.22075000    16.88864000   -28.20000000
   68.20097000    16.87856000   -30.70000000
   68.18118000    16.86847000   -32.30000000
   68.16140000    16.85838000   -33.80000000
   68.14161000    16.84829000   -34.30000000
   68.12183000    16.83820000   -37.90000000
   68.10204000    16.82811000   -37.40000000
   68.08226000    16.81802000   -40.90000000
   68.06247000    16.80793000   -40.40000000
   68.04231000    16.79770000   -42.90000000
   68.02215000    16.78746000   -46.50000000
   68.00198000    16.77722000   -49.00000000
   67.98182000    16.76698000   -49.50000000
   67.96166000    16.75674000   -47.00000000
   67.94150000    16.74650000   -46.50000000
   67.92133000    16.73626000   -44.00000000
   67.90117000    16.72602000   -42.40000000
   67.88101000    16.71578000   -40.90000000
   67.86085000    16.70554000   -41.40000000
   67.84068000    16.69530000   -41.90000000
   67.82052000    16.68507000   -41.40000000
   67.79973000    16.67458000   -44.50000000
   67.77894000    16.66409000   -42.00000000
   67.75815000    16.65361000   -39.40000000
   67.73736000    16.64312000   -38.90000000
   67.71657000    16.63263000   -38.40000000
   67.69577000    16.62215000   -37.90000000
   67.67498000    16.61166000   -38.40000000
   67.65470000    16.60070000   -34.60000000
   67.63442000    16.58974000   -36.10000000
   67.61415000    16.57878000   -37.60000000
   67.59387000    16.56782000   -35.00000000
   67.57359000    16.55686000   -35.50000000
   67.55319000    16.54586000   -37.30000000
   67.53280000    16.53486000   -37.70000000
   67.51241000    16.52386000   -38.20000000
   67.49140000    16.51345000   -41.70000000
   67.47024000    16.50320000   -42.20000000
   67.44913000    16.49284000   -44.20000000
   67.42818000    16.48210000   -43.70000000
   67.40723000    16.47135000   -46.20000000
   67.38627000    16.46060000   -45.70000000
   67.36532000    16.44985000   -47.20000000
   67.34437000    16.43910000   -46.70000000
   67.32342000    16.42835000   -45.10000000
   67.30183000    16.41736000   -44.20000000
   67.28025000    16.40636000   -38.60000000
   67.25866000    16.39537000   -35.00000000
   67.23707000    16.38437000   -32.40000000
   67.25283000    16.32884000   -31.90000000
   67.26072000    16.30108000   -30.60000000
   67.26860000    16.27332000   -28.20000000
   67.27642000    16.24586000   -28.20000000
   67.28415000    16.21887000   -28.90000000
   67.29189000    16.19187000   -29.70000000
   67.29962000    16.16488000   -30.40000000
   67.30749000    16.13738000   -29.80000000
   67.31536000    16.10987000   -28.40000000
   67.32323000    16.08236000   -27.10000000
   67.33109000    16.05486000   -25.80000000
   67.33896000    16.02735000   -24.50000000
   67.34683000    15.99985000   -24.20000000
   67.35201000    15.98270000   -25.00000000
   67.35718000    15.96554000   -23.10000000
   67.36236000    15.94839000   -23.40000000
   67.36754000    15.93124000   -21.50000000
   67.37272000    15.91409000   -20.70000000
   67.37789000    15.89693000   -20.90000000
   67.38286000    15.87933000   -20.00000000
   67.38766000    15.86156000   -20.20000000
   67.39245000    15.84379000   -19.30000000
   67.39711000    15.82655000   -18.90000000
   67.40177000    15.80931000   -17.00000000
   67.40643000    15.79207000   -16.20000000
   67.41381000    15.76432000   -11.10000000
   67.42119000    15.73657000   -10.90000000
   67.42857000    15.70882000    -9.60000000
   67.43594000    15.68107000    -8.30000000
   67.44332000    15.65333000   -11.00000000
   67.45033000    15.62564000   -12.70000000
   67.45733000    15.59796000   -14.40000000
   67.46434000    15.57028000   -15.20000000
   67.47134000    15.54259000   -15.90000000
   67.48119000    15.51558000   -16.70000000
   67.49104000    15.48857000   -17.40000000
   67.50089000    15.46155000   -18.20000000
   67.51075000    15.43454000   -17.00000000
   67.52073000    15.40759000   -16.90000000
   67.53092000    15.38074000   -15.70000000
   67.54110000    15.35390000   -15.40000000
   67.55129000    15.32705000   -16.20000000
   67.57166000    15.27334000   -17.10000000
   67.58184000    15.24648000   -16.90000000
   67.59223000    15.21974000   -15.10000000
   67.60344000    15.19347000   -14.90000000
   67.61464000    15.16721000   -14.70000000
   67.62584000    15.14094000   -16.60000000
   67.63705000    15.11467000   -18.50000000
   67.64825000    15.08840000   -18.30000000
   67.65945000    15.06214000   -19.10000000
   67.67066000    15.03587000   -20.00000000
   67.68186000    15.00960000   -19.80000000
   67.69306000    14.98334000   -18.60000000
   67.70424000    14.95714000   -19.50000000
   67.71541000    14.93095000   -18.40000000
   67.72658000    14.90476000   -17.20000000
   67.73775000    14.87857000   -17.00000000
   67.74662000    14.85778000   -16.40000000
   67.75362000    14.84335000   -18.70000000
   67.85216000    14.84375000   -17.00000000
   67.87843000    14.85731000   -18.70000000
   67.90469000    14.87087000   -22.30000000
   67.93096000    14.88444000   -26.00000000
   67.95722000    14.89800000   -29.60000000
   67.98349000    14.91156000   -32.30000000
   68.00975000    14.92512000   -34.90000000
   68.03602000    14.93868000   -37.50000000
   68.06228000    14.95224000   -39.20000000
   68.08824000    14.96562000   -40.60000000
   68.11421000    14.97899000   -41.20000000
   68.14017000    14.99237000   -42.80000000
   68.16613000    15.00574000   -45.50000000
   68.19210000    15.01912000   -50.10000000
   68.21806000    15.03249000   -52.80000000
   68.24402000    15.04587000   -54.40000000
   68.26998000    15.05924000   -55.00000000
   68.29595000    15.07262000   -54.60000000
   68.32191000    15.08599000   -54.20000000
   68.34787000    15.09937000   -52.70000000
   68.37384000    15.11275000   -51.30000000
   68.39982000    15.12612000   -47.90000000
   68.42581000    15.13950000   -48.50000000
   68.45179000    15.15287000   -47.10000000
   68.47778000    15.16625000   -44.60000000
   68.50376000    15.17962000   -44.20000000
   68.52975000    15.19300000   -41.80000000
   68.55573000    15.20637000   -43.40000000
   68.58172000    15.21975000   -47.10000000
   68.60770000    15.23312000   -48.70000000
   68.63369000    15.24650000   -50.30000000
   68.65967000    15.25987000   -48.90000000
   68.68566000    15.27325000   -47.50000000
   68.71178000    15.28669000   -44.80000000
   68.73789000    15.30014000   -42.30000000
   68.76401000    15.31358000   -37.90000000
   68.79013000    15.32702000   -35.40000000
   68.81625000    15.34046000   -32.00000000
   68.84237000    15.35391000   -31.60000000
   68.86850000    15.36735000   -33.20000000
   68.89463000    15.38079000   -34.90000000
   68.92076000    15.39424000   -36.50000000
   68.94651000    15.40771000   -40.80000000
   68.97078000    15.42127000   -38.40000000
   68.99505000    15.43484000   -36.00000000
   69.01957000    15.44854000   -34.00000000
   69.04409000    15.46225000   -31.60000000
   69.06861000    15.47595000   -31.20000000
   69.09312000    15.48965000   -29.80000000
   69.11764000    15.50336000   -29.40000000
   69.14216000    15.51706000   -27.90000000
   69.16658000    15.53070000   -27.80000000
   69.19099000    15.54433000   -27.50000000
   69.21541000    15.55797000   -26.10000000
   69.23982000    15.57160000   -25.70000000
   69.26424000    15.58524000   -25.30000000
   69.28865000    15.59887000   -22.90000000
   69.31307000    15.61251000   -22.50000000
   69.33748000    15.62614000   -22.10000000
   69.36190000    15.63978000   -21.70000000
   69.38631000    15.65341000   -21.40000000
   69.41073000    15.66705000   -21.00000000
   69.43515000    15.68068000   -21.60000000
   69.45970000    15.69438000   -23.00000000
   69.48425000    15.70809000   -24.70000000
   69.50881000    15.72179000   -26.30000000
   69.53336000    15.73549000   -27.00000000
   69.55792000    15.74920000   -26.60000000
   69.58247000    15.76290000   -26.20000000
   69.60703000    15.77660000   -27.90000000
   69.63158000    15.79031000   -30.60000000
   69.65614000    15.80401000   -34.30000000
   69.68069000    15.81771000   -36.90000000
   69.70525000    15.83142000   -38.60000000
   69.72980000    15.84512000   -40.30000000
   69.75427000    15.85877000   -40.20000000
   69.77874000    15.87241000   -40.80000000
   69.80330000    15.88587000   -40.30000000
   69.82824000    15.89858000   -39.90000000
   69.85317000    15.91128000   -37.50000000
   69.87811000    15.92399000   -37.10000000
   69.90305000    15.93669000   -36.60000000
   69.92798000    15.94940000   -35.20000000
   69.95292000    15.96211000   -34.80000000
   69.97837000    15.97397000   -34.10000000
   70.00382000    15.98583000   -34.70000000
   70.02927000    15.99769000   -35.30000000
   70.05472000    16.00955000   -33.80000000
   70.08000000    16.02187000   -33.40000000
   70.10505000    16.03488000   -34.00000000
   70.13009000    16.04790000   -34.60000000
   70.15513000    16.06091000   -35.30000000
   70.18017000    16.07393000   -34.90000000
   70.20531000    16.08699000   -35.30000000
   70.23044000    16.10004000   -37.00000000
   70.25558000    16.11310000   -39.60000000
   70.28072000    16.12616000   -40.20000000
   70.30585000    16.13921000   -41.90000000
   70.33099000    16.15227000   -43.50000000
   70.35612000    16.16533000   -42.10000000
   70.38126000    16.17839000   -42.80000000
   70.40640000    16.19144000   -40.30000000
   70.43153000    16.20450000   -39.90000000
   70.45667000    16.21756000   -39.60000000
   70.48181000    16.23062000   -40.20000000
   70.50626000    16.24368000   -44.70000000
   70.53028000    16.25708000   -45.40000000
   70.55430000    16.27048000   -45.00000000
   70.57831000    16.28387000   -41.60000000
   70.60233000    16.29727000   -37.10000000
   70.62635000    16.31067000   -35.70000000
   70.65037000    16.32406000   -34.40000000
   70.71237000    16.35889000   -37.50000000
   70.73584000    16.37199000   -37.10000000
   70.75931000    16.38509000   -38.70000000
   70.78279000    16.39819000   -44.50000000
   70.80910000    16.41342000   -54.40000000
   70.81784000    16.41868000   -54.60000000
   70.82657000    16.42394000   -54.90000000
   70.83662000    16.42896000   -51.10000000
   70.86255000    16.44218000   -47.70000000
   70.88848000    16.45540000   -47.30000000
   70.91441000    16.46862000   -44.90000000
   70.98954000    16.50629000   -50.10000000
   71.01538000    16.51945000   -56.80000000
   71.04122000    16.53262000   -59.50000000
   71.06705000    16.54578000   -62.20000000
   71.09289000    16.55894000   -62.80000000
   71.11872000    16.57211000   -63.50000000
   71.14408000    16.58501000   -65.40000000
   71.16944000    16.59791000   -66.00000000
   71.19479000    16.61081000   -64.60000000
   71.22015000    16.62371000   -64.20000000
   71.24551000    16.63661000   -60.80000000
   71.27087000    16.64951000   -60.40000000
   71.29622000    16.66241000   -61.10000000
   71.32158000    16.67531000   -62.70000000
   71.34694000    16.68821000   -65.40000000
   71.37229000    16.70111000   -66.00000000
   71.39765000    16.71401000   -65.60000000
   71.42301000    16.72691000   -65.30000000
   71.44838000    16.73981000   -64.90000000
   71.47375000    16.75271000   -62.50000000
   71.49912000    16.76561000   -62.20000000
   71.52450000    16.77851000   -60.80000000
   71.54987000    16.79141000   -59.40000000
   71.57524000    16.80431000   -58.00000000
   71.60061000    16.81721000   -53.50000000
   71.62599000    16.83011000   -49.10000000
   71.65136000    16.84301000   -46.70000000
   71.67666000    16.85569000   -48.30000000
   71.70165000    16.86752000   -49.90000000
   71.72665000    16.87935000   -50.50000000
   71.75165000    16.89118000   -51.10000000
   71.77665000    16.90301000   -46.60000000
   71.80165000    16.91483000   -42.10000000
   71.82665000    16.92666000   -35.60000000
   71.85217000    16.93834000   -29.90000000
   71.87770000    16.95002000   -24.30000000
   71.90323000    16.96170000   -20.90000000
   71.92875000    16.97338000   -15.30000000
   71.95428000    16.98506000    -8.80000000
   71.97980000    16.99674000    -7.40000000
   72.00533000    17.00843000    -6.90000000
   72.03086000    17.02011000    -7.50000000
   72.05674000    17.03197000    -7.30000000
   72.08262000    17.04383000    -7.90000000
   72.10840000    17.05585000    -9.70000000
   72.13382000    17.06847000    -9.30000000
   72.15923000    17.08108000    -9.90000000
   72.18464000    17.09370000   -10.60000000
   72.19881000    17.10036000   -13.20000000
   72.21298000    17.10702000   -10.50000000
   72.22715000    17.11368000    -8.80000000
   72.24132000    17.12033000    -8.20000000
   72.25549000    17.12699000    -8.50000000
   72.27021000    17.13343000    -5.10000000
   72.28532000    17.13993000    -1.80000000
   72.30042000    17.14642000     0.90000000
   72.31552000    17.15292000     4.70000000
   72.33063000    17.15942000     6.40000000
   72.34573000    17.16592000     8.10000000
   72.36084000    17.17242000    12.10000000
   72.40649000    17.19359000    15.80000000
   72.43263000    17.20592000    18.20000000
   72.45894000    17.21839000    22.60000000
   72.48549000    17.23107000    24.00000000
   72.51205000    17.24374000    26.40000000
   72.53860000    17.25641000    24.80000000
   72.56516000    17.26908000    24.10000000
   72.59172000    17.28175000    22.50000000
   72.61261000    17.23100000    18.90000000
   72.62306000    17.20563000    21.20000000
   72.63378000    17.17952000    22.20000000
   72.64450000    17.15342000    23.60000000
   72.65522000    17.12732000    25.90000000
   72.66613000    17.10123000    24.40000000
   72.67734000    17.07515000    15.50000000
   72.68855000    17.04907000     9.70000000
   72.69564000    17.03379000    -1.70000000
   72.70274000    17.01850000    -6.00000000
   72.70983000    17.00322000    -8.20000000
   72.71692000    16.98794000   -12.60000000
   72.72402000    16.97266000   -14.80000000
   72.73111000    16.95738000   -16.10000000
   72.73833000    16.94178000   -20.10000000
   72.74555000    16.92618000   -21.30000000
   72.75277000    16.91059000   -23.60000000
   72.75999000    16.89499000   -24.90000000
   72.76738000    16.87900000   -24.70000000
   72.77477000    16.86301000   -26.90000000
   72.78215000    16.84702000   -27.10000000
   72.78954000    16.83103000   -26.30000000
   72.79978000    16.80753000   -29.30000000
   72.81124000    16.78083000   -28.00000000
   72.82270000    16.75412000   -34.80000000
   72.83416000    16.72742000   -35.50000000
   72.84562000    16.70071000   -35.20000000
   72.85708000    16.67401000   -34.90000000
   72.86818000    16.64719000   -37.00000000
   72.87904000    16.62029000   -36.70000000
   72.88990000    16.59340000   -35.40000000
   72.90076000    16.56650000   -32.00000000
   72.91155000    16.53981000   -26.80000000
   72.92233000    16.51311000   -21.40000000
   72.93312000    16.48641000   -17.10000000
   72.94391000    16.45971000   -14.70000000
   72.95470000    16.43302000   -14.40000000
   72.96525000    16.40631000   -18.00000000
   72.97488000    16.37959000   -19.80000000
   72.98451000    16.35287000   -23.60000000
   72.98932000    16.33950000   -23.90000000
   72.99414000    16.32614000   -26.30000000
   72.94941000    16.29973000     4.20000000
   72.92704000    16.28653000    15.00000000
   72.89604000    16.26712000    15.10000000
   72.88069000    16.25727000    12.50000000
   72.86534000    16.24743000     9.90000000
   72.83933000    16.23023000     5.30000000
   72.82383000    16.22031000     5.70000000
   72.80834000    16.21038000     5.20000000
   72.79284000    16.20046000     4.70000000
   72.77734000    16.19053000     6.20000000
   72.76185000    16.18061000     3.60000000
   72.74635000    16.17068000     4.10000000
   72.73095000    16.16081000     4.80000000
   72.71556000    16.15094000     4.20000000
   72.70017000    16.14107000     4.70000000
   72.68477000    16.13119000     6.20000000
   72.66938000    16.12132000     6.70000000
   72.64900000    16.10879000     5.80000000
   72.62733000    16.09535000    12.00000000
   72.60623000    16.08206000    14.60000000
   72.58513000    16.06877000    16.30000000
   72.56403000    16.05548000    16.90000000
   72.54293000    16.04219000    17.60000000
   72.47843000    16.00467000    -3.50000000
   72.45673000    15.99256000   -15.20000000
   72.43503000    15.98044000   -22.70000000
   72.41333000    15.96833000   -27.20000000
   72.39170000    15.95582000   -33.60000000
   72.37007000    15.94332000   -39.10000000
   72.34845000    15.93082000   -44.60000000
   72.32682000    15.91831000   -50.10000000
   72.30519000    15.90581000   -57.70000000
   72.26194000    15.88080000   -65.60000000
   72.24034000    15.86830000   -67.00000000
   72.21874000    15.85581000   -63.40000000
   72.19714000    15.84331000   -61.80000000
   72.17554000    15.83082000   -57.10000000
   72.15393000    15.81832000   -51.50000000
   72.13212000    15.80575000   -49.50000000
   72.10944000    15.79288000   -46.90000000
   72.08677000    15.78001000   -44.30000000
   72.06410000    15.76714000   -42.60000000
   72.04142000    15.75427000   -41.00000000
   72.01875000    15.74140000   -39.40000000
   71.99607000    15.72853000   -36.80000000
   71.97343000    15.71567000   -28.00000000
   71.95078000    15.70281000   -23.30000000
   71.92814000    15.68995000   -22.70000000
   71.90549000    15.67709000   -22.10000000
   71.88285000    15.66423000   -22.50000000
   71.86041000    15.65195000   -27.40000000
   71.83803000    15.63981000   -34.00000000
   71.81564000    15.62767000   -42.60000000
   71.79326000    15.61553000   -49.10000000
   71.77087000    15.60340000   -53.60000000
   71.66016000    15.54405000   -49.60000000
   71.61003000    15.51851000   -35.20000000
   71.58616000    15.50634000   -26.50000000
   71.56228000    15.49418000   -21.90000000
   71.53841000    15.48202000   -24.30000000
   71.51453000    15.46986000   -28.90000000
   71.49224000    15.45779000   -27.80000000
   71.47100000    15.44578000   -28.30000000
   71.44976000    15.43377000   -28.80000000
   71.42832000    15.42166000   -40.90000000
   71.40507000    15.41046000   -41.90000000
   71.38182000    15.39926000   -35.30000000
   71.35857000    15.38806000   -26.70000000
   71.33532000    15.37686000   -21.10000000
   71.31207000    15.36566000   -18.50000000
   71.28882000    15.35446000   -18.00000000
   71.26557000    15.34326000   -18.50000000
   71.24232000    15.33206000   -20.00000000
   71.21907000    15.32086000   -22.60000000
   71.19582000    15.30966000   -22.10000000
   71.17257000    15.29846000   -23.60000000
   71.14946000    15.28732000   -25.80000000
   71.12636000    15.27618000   -28.30000000
   71.10325000    15.26504000   -29.90000000
   71.08014000    15.25390000   -31.40000000
   71.05713000    15.24279000   -30.80000000
   71.03448000    15.23178000   -31.30000000
   71.01183000    15.22077000   -29.80000000
   70.98918000    15.20977000   -30.30000000
   70.96653000    15.19876000   -29.80000000
   70.94388000    15.18775000   -29.30000000
   70.92123000    15.17674000   -30.80000000
   70.89859000    15.16573000   -33.30000000
   70.87596000    15.15473000   -33.80000000
   70.85333000    15.14373000   -34.30000000
   70.83070000    15.13273000   -33.80000000
   70.80786000    15.12163000   -34.20000000
   70.78488000    15.11047000   -34.70000000
   70.76189000    15.09931000   -34.20000000
   70.73891000    15.08814000   -32.70000000
   70.71592000    15.07698000   -33.20000000
   70.69294000    15.06582000   -33.70000000
   70.66996000    15.05466000   -34.20000000
   70.64697000    15.04350000   -33.70000000
   70.62399000    15.03234000   -35.20000000
   70.60139000    15.02135000   -34.90000000
   70.57880000    15.01037000   -35.40000000
   70.55620000    14.99938000   -36.90000000
   70.53361000    14.98840000   -38.50000000
   70.51102000    14.97742000   -39.00000000
   70.48842000    14.96643000   -39.50000000
   70.46583000    14.95545000   -39.00000000
   70.44323000    14.94446000   -38.50000000
   70.42064000    14.93348000   -38.00000000
   70.39804000    14.92249000   -37.50000000
   70.37545000    14.91151000   -37.00000000
   70.35285000    14.90053000   -37.60000000
   70.32991000    14.88877000   -36.10000000
   70.30689000    14.87683000   -36.60000000
   70.28387000    14.86488000   -36.10000000
   70.26085000    14.85294000   -35.60000000
   70.23783000    14.84099000   -35.00000000
   70.21481000    14.82905000   -34.50000000
   70.19180000    14.81711000   -34.00000000
   70.16879000    14.80516000   -34.40000000
   70.14579000    14.79322000   -33.90000000
   70.12278000    14.78128000   -33.40000000
   70.09977000    14.76934000   -32.90000000
   70.07676000    14.75739000   -32.30000000
   70.06473000    14.75852000   -34.00000000
   70.05757000    14.75173000   -35.20000000
   70.03949000    14.74040000   -37.00000000
   70.01849000    14.72751000   -35.40000000
   69.99749000    14.71461000   -33.80000000
   69.97650000    14.70171000   -34.20000000
   69.95550000    14.68882000   -34.70000000
   69.93450000    14.67592000   -35.10000000
   69.91351000    14.66303000   -31.50000000
   69.89251000    14.65013000   -32.00000000
   69.87666000    14.63999000   -35.30000000
   69.85993000    14.62953000   -32.60000000
   69.83955000    14.61709000   -30.00000000
   69.81918000    14.60466000   -29.40000000
   69.79881000    14.59223000   -28.90000000
   69.77844000    14.57980000   -31.40000000
   69.75807000    14.56737000   -30.90000000
   69.73770000    14.55493000   -31.30000000
   69.71680000    14.54319000   -36.20000000
   69.69591000    14.53144000   -38.80000000
   69.67501000    14.51969000   -40.30000000
   69.65380000    14.50775000   -42.20000000
   69.63237000    14.49567000   -41.60000000
   69.61094000    14.48359000   -41.10000000
   69.58915000    14.47133000   -40.50000000
   69.56736000    14.45907000   -41.00000000
   69.54557000    14.44681000   -40.50000000
   69.52378000    14.43455000   -38.90000000
   69.50199000    14.42228000   -38.40000000
   69.48020000    14.41002000   -34.80000000
   69.45841000    14.39776000   -33.20000000
   69.43663000    14.38550000   -32.70000000
   69.41484000    14.37324000   -31.20000000
   69.39305000    14.36098000   -29.60000000
   69.33595000    14.32710000   -33.70000000
   69.30186000    14.30745000   -33.50000000
   69.27926000    14.29488000   -34.00000000
   69.25666000    14.28231000   -32.40000000
   69.23405000    14.26974000   -32.90000000
   69.21145000    14.25717000   -31.40000000
   69.18884000    14.24460000   -32.90000000
   69.16624000    14.23203000   -29.30000000
   69.14363000    14.21946000   -28.70000000
   69.12103000    14.20689000   -28.20000000
   69.09837000    14.19430000   -28.80000000
   69.07572000    14.18170000   -27.30000000
   69.05354000    14.16937000   -24.80000000
   69.03166000    14.15722000   -25.30000000
   69.00978000    14.14506000   -25.80000000
   68.98791000    14.13291000   -27.30000000
   68.96603000    14.12076000   -28.80000000
   68.94416000    14.10861000   -27.30000000
   68.92228000    14.09645000   -26.80000000
   68.90041000    14.08430000   -25.30000000
   68.87853000    14.07215000   -24.70000000
   68.85665000    14.05999000   -23.20000000
   68.83480000    14.04820000   -22.70000000
   68.81294000    14.03641000   -22.20000000
   68.79109000    14.02462000   -22.70000000
   68.76924000    14.01282000   -23.20000000
   68.74738000    14.00103000   -23.80000000
   68.72553000    13.98924000   -22.30000000
   68.70367000    13.97745000   -21.80000000
   68.68182000    13.96565000   -21.30000000
   68.65996000    13.95386000   -20.80000000
   68.63811000    13.94207000   -20.30000000
   68.61563000    13.93039000   -23.80000000
   68.59222000    13.91888000   -25.30000000
   68.56894000    13.90744000   -24.50000000
   68.54567000    13.89600000   -25.10000000
   68.52239000    13.88456000   -25.60000000
   68.49912000    13.87311000   -26.10000000
   68.47585000    13.86167000   -25.60000000
   68.45257000    13.85023000   -27.20000000
   68.42958000    13.83892000   -27.00000000
   68.40679000    13.82756000   -27.00000000
   68.38404000    13.81619000   -26.50000000
   68.36130000    13.80482000   -27.00000000
   68.33855000    13.79345000   -26.60000000
   68.31581000    13.78208000   -25.10000000
   68.29282000    13.77058000   -26.30000000
   68.26983000    13.75908000   -24.80000000
   68.24684000    13.74759000   -25.30000000
   68.22385000    13.73609000   -22.80000000
   68.20086000    13.72459000   -24.40000000
   68.17833000    13.71334000   -21.90000000
   68.15612000    13.70226000   -21.50000000
   68.14367000    13.66136000   -22.00000000
   68.14810000    13.63468000   -23.00000000
   68.15265000    13.60781000   -24.50000000
   68.15762000    13.58022000   -24.40000000
   68.16259000    13.55263000   -27.40000000
   68.16756000    13.52504000   -27.20000000
   68.17253000    13.49745000   -27.10000000
   68.17751000    13.46987000   -28.00000000
   68.18248000    13.44228000   -27.90000000
   68.18745000    13.41469000   -27.80000000
   68.19241000    13.38718000   -27.70000000
   68.19737000    13.35967000   -27.60000000
   68.20233000    13.33216000   -26.50000000
   68.20665000    13.30444000   -28.50000000
   68.21082000    13.27666000   -28.30000000
   68.21499000    13.24888000   -27.20000000
   68.21916000    13.22110000   -27.10000000
   68.22332000    13.19333000   -27.00000000
   68.22799000    13.16575000   -25.70000000
   68.23266000    13.13817000   -26.60000000
   68.23732000    13.11060000   -26.50000000
   68.24199000    13.08302000   -28.50000000
   68.24662000    13.05572000   -29.70000000
   68.25126000    13.02843000   -29.60000000
   68.25589000    13.00113000   -31.60000000
   68.26052000    12.97384000   -31.50000000
   68.26515000    12.94654000   -32.50000000
   68.26979000    12.91925000   -33.50000000
   68.27434000    12.89234000   -33.70000000
   68.27885000    12.86570000   -32.70000000
   68.28335000    12.83906000   -32.70000000
   68.28786000    12.81241000   -31.60000000
   68.29236000    12.78577000   -30.60000000
   68.29687000    12.75913000   -30.60000000
   68.30139000    12.73236000   -32.60000000
   68.30591000    12.70560000   -32.50000000
   68.31043000    12.67883000   -33.50000000
   68.31495000    12.65207000   -34.50000000
   68.31947000    12.62530000   -33.50000000
   68.32398000    12.59854000   -32.50000000
   68.32660000    12.58498000   -35.80000000
   68.32921000    12.57141000   -35.30000000
   68.33182000    12.55785000   -35.80000000
   68.33444000    12.54428000   -35.30000000
   68.33705000    12.53072000   -35.80000000
   68.33966000    12.51716000   -34.30000000
   68.34227000    12.50371000   -35.80000000
   68.34621000    12.49013000   -30.60000000
   68.35103000    12.47647000   -30.10000000
   68.35586000    12.46281000   -31.60000000
   68.36068000    12.44915000   -30.10000000
   68.36550000    12.43549000   -31.60000000
   68.37032000    12.42183000   -32.10000000
   68.37515000    12.40817000   -31.60000000
   68.37997000    12.39451000   -32.10000000
   68.38664000    12.36801000   -31.40000000
   68.39332000    12.34150000   -31.40000000
   68.39999000    12.31499000   -30.40000000
   68.40792000    12.28853000   -25.10000000
   68.41586000    12.26207000   -24.10000000
   68.42379000    12.23561000   -24.20000000
   68.43173000    12.20914000   -23.20000000
   68.43966000    12.18268000   -23.20000000
   68.44760000    12.15622000   -22.20000000
   68.47035000    12.07598000   -28.60000000
   68.47543000    12.04929000   -29.70000000
   68.48051000    12.02259000   -30.70000000
   68.48559000    11.99590000   -31.80000000
   68.49067000    11.96921000   -32.90000000
   68.49575000    11.94251000   -31.90000000
   68.50084000    11.91582000   -28.90000000
   68.50592000    11.88912000   -28.90000000
   68.51100000    11.86243000   -26.90000000
   68.51608000    11.83573000   -27.00000000
   68.52111000    11.80931000   -29.20000000
   68.52615000    11.78290000   -31.30000000
   68.53119000    11.75648000   -30.30000000
   68.53622000    11.73006000   -29.40000000
   68.54126000    11.70365000   -28.40000000
   68.54630000    11.67723000   -27.50000000
   68.55096000    11.65053000   -26.10000000
   68.61079000    11.64338000   -22.50000000
   68.63234000    11.66062000   -21.30000000
   68.65402000    11.67807000   -22.90000000
   68.67571000    11.69551000   -24.60000000
   68.69740000    11.71296000   -26.20000000
   68.71909000    11.73041000   -26.80000000
   68.74078000    11.74786000   -27.50000000
   68.76246000    11.76531000   -28.10000000
   68.78415000    11.78276000   -28.70000000
