  101.74754000    -6.49649000   -62.90000000
  101.74754000    -6.49649000   -63.40000000
  101.74756000    -6.49649000   -63.00000000
  101.74757000    -6.49649000   -62.80000000
  101.74758000    -6.49649000   -62.90000000
  101.74760000    -6.49650000   -63.00000000
  101.74761000    -6.49649000   -62.70000000
  101.74763000    -6.49649000   -62.70000000
  101.74764000    -6.49649000   -62.60000000
  101.74766000    -6.49649000   -62.80000000
  101.74767000    -6.49648000   -62.60000000
  101.74769000    -6.49647000   -62.70000000
  101.74770000    -6.49647000   -63.20000000
  101.74771000    -6.49647000   -62.50000000
  101.74773000    -6.49647000   -62.90000000
  101.74773000    -6.49647000   -63.10000000
  101.74775000    -6.49647000   -63.20000000
  101.74776000    -6.49647000   -63.20000000
  101.74777000    -6.49647000   -62.60000000
  101.74780000    -6.49647000   -62.70000000
  101.74781000    -6.49647000   -62.40000000
  101.74783000    -6.49647000   -62.80000000
  101.74786000    -6.49648000   -62.60000000
  101.74788000    -6.49649000   -62.70000000
  101.74790000    -6.49649000   -63.10000000
  101.74793000    -6.49650000   -63.00000000
  101.74796000    -6.49650000   -62.60000000
  101.74798000    -6.49651000   -62.70000000
  101.74800000    -6.49651000   -62.70000000
  101.74803000    -6.49651000   -62.80000000
  101.74805000    -6.49651000   -62.80000000
  101.74808000    -6.49650000   -62.90000000
  101.74810000    -6.49650000   -62.90000000
  101.74812000    -6.49650000   -63.10000000
  101.74814000    -6.49650000   -62.80000000
  101.74816000    -6.49650000   -62.80000000
  101.74818000    -6.49650000   -63.10000000
  101.74821000    -6.49651000   -62.80000000
  101.74823000    -6.49651000   -63.10000000
  101.74825000    -6.49652000   -62.70000000
  101.74827000    -6.49652000   -62.80000000
  101.74828000    -6.49652000   -63.10000000
  101.74830000    -6.49652000   -63.00000000
  101.74831000    -6.49652000   -63.20000000
  101.74832000    -6.49651000   -63.30000000
  101.74833000    -6.49650000   -63.20000000
  101.74834000    -6.49650000   -63.60000000
  101.74834000    -6.49649000   -63.20000000
  101.74834000    -6.49648000   -63.20000000
  101.74834000    -6.49647000   -63.00000000
  101.74834000    -6.49646000   -62.90000000
  101.74834000    -6.49646000   -63.30000000
  101.74834000    -6.49646000   -63.00000000
  101.74834000    -6.49646000   -63.00000000
  101.74834000    -6.49647000   -62.80000000
  101.74834000    -6.49647000   -62.50000000
  101.74834000    -6.49646000   -63.00000000
  101.74834000    -6.49646000   -62.80000000
  101.74834000    -6.49646000   -62.80000000
  101.74834000    -6.49645000   -62.90000000
  101.74833000    -6.49644000   -63.30000000
  101.74833000    -6.49643000   -62.90000000
  101.74833000    -6.49643000   -62.70000000
  101.74833000    -6.49641000   -62.90000000
  101.74832000    -6.49640000   -63.20000000
  101.74832000    -6.49639000   -63.00000000
  101.74831000    -6.49638000   -62.80000000
  101.74831000    -6.49637000   -63.20000000
  101.74829000    -6.49635000   -63.30000000
  101.74828000    -6.49634000   -63.10000000
  101.74827000    -6.49632000   -62.90000000
  101.74825000    -6.49630000   -62.90000000
  101.74823000    -6.49628000   -63.10000000
  101.74821000    -6.49625000   -63.00000000
  101.74819000    -6.49622000   -63.00000000
  101.74816000    -6.49619000   -63.20000000
  101.74814000    -6.49616000   -63.20000000
  101.74811000    -6.49612000   -63.40000000
  101.74807000    -6.49608000   -63.30000000
  101.74804000    -6.49604000   -63.30000000
  101.74800000    -6.49599000   -63.20000000
  101.74796000    -6.49595000   -63.10000000
  101.74792000    -6.49590000   -63.50000000
  101.74786000    -6.49586000   -63.50000000
  101.74781000    -6.49581000   -63.40000000
  101.74775000    -6.49576000   -63.10000000
  101.74768000    -6.49571000   -63.50000000
  101.74762000    -6.49566000   -63.60000000
  101.74756000    -6.49562000   -63.30000000
  101.74750000    -6.49557000   -63.20000000
  101.74745000    -6.49552000   -63.20000000
  101.74741000    -6.49547000   -62.60000000
  101.74738000    -6.49542000   -62.80000000
  101.74735000    -6.49537000   -62.40000000
  101.74733000    -6.49532000   -62.60000000
  101.74731000    -6.49527000   -61.90000000
  101.74731000    -6.49523000   -61.90000000
  101.74731000    -6.49518000   -62.40000000
  101.74731000    -6.49515000   -62.10000000
  101.74731000    -6.49512000   -62.50000000
  101.74733000    -6.49510000   -62.30000000
  101.74735000    -6.49508000   -62.10000000
  101.74738000    -6.49507000   -62.00000000
  101.74741000    -6.49508000   -62.00000000
  101.74744000    -6.49509000   -62.20000000
  101.74750000    -6.49511000   -61.70000000
  101.74755000    -6.49513000   -61.90000000
  101.74762000    -6.49516000   -62.20000000
  101.74769000    -6.49520000   -62.20000000
  101.74776000    -6.49523000   -62.10000000
  101.74784000    -6.49527000   -62.00000000
  101.74792000    -6.49532000   -62.00000000
  101.74801000    -6.49536000   -62.40000000
  101.74809000    -6.49540000   -62.80000000
  101.74818000    -6.49544000   -63.30000000
  101.74825000    -6.49548000   -63.70000000
  101.74831000    -6.49551000   -63.80000000
  101.74836000    -6.49554000   -64.00000000
  101.74839000    -6.49556000   -63.90000000
  101.74842000    -6.49557000   -64.00000000
  101.74844000    -6.49558000   -64.50000000
  101.74844000    -6.49559000   -63.90000000
  101.74845000    -6.49560000   -63.80000000
  101.74845000    -6.49560000   -64.00000000
  101.74844000    -6.49559000   -63.60000000
  101.74843000    -6.49558000   -63.80000000
  101.74841000    -6.49557000   -63.50000000
  101.74838000    -6.49555000   -63.60000000
  101.74835000    -6.49553000   -64.10000000
  101.74831000    -6.49550000   -63.70000000
  101.74828000    -6.49547000   -64.10000000
  101.74823000    -6.49544000   -63.40000000
  101.74818000    -6.49541000   -63.50000000
  101.74814000    -6.49537000   -63.90000000
  101.74809000    -6.49533000   -63.50000000
  101.74804000    -6.49530000   -63.50000000
  101.74799000    -6.49526000   -63.30000000
  101.74795000    -6.49522000   -63.20000000
  101.74791000    -6.49518000   -63.40000000
  101.74787000    -6.49514000   -63.20000000
  101.74783000    -6.49510000   -63.10000000
  101.74780000    -6.49506000   -62.70000000
  101.74778000    -6.49502000   -63.10000000
  101.74776000    -6.49497000   -63.10000000
  101.74774000    -6.49493000   -62.90000000
  101.74773000    -6.49488000   -62.70000000
  101.74773000    -6.49484000   -62.50000000
  101.74773000    -6.49481000   -62.70000000
  101.74774000    -6.49478000   -62.10000000
  101.74776000    -6.49476000   -62.30000000
  101.74778000    -6.49475000   -62.40000000
  101.74780000    -6.49474000   -62.60000000
  101.74783000    -6.49474000   -62.80000000
  101.74785000    -6.49474000   -62.70000000
  101.74787000    -6.49474000   -63.20000000
  101.74789000    -6.49475000   -63.20000000
  101.74792000    -6.49476000   -62.80000000
  101.74795000    -6.49477000   -62.90000000
  101.74797000    -6.49478000   -62.60000000
  101.74800000    -6.49479000   -62.90000000
  101.74803000    -6.49480000   -63.10000000
  101.74807000    -6.49481000   -62.50000000
  101.74811000    -6.49483000   -63.00000000
  101.74815000    -6.49484000   -63.20000000
  101.74818000    -6.49485000   -63.00000000
  101.74822000    -6.49485000   -62.80000000
  101.74826000    -6.49486000   -63.20000000
  101.74829000    -6.49486000   -63.10000000
  101.74831000    -6.49486000   -63.60000000
  101.74834000    -6.49486000   -63.50000000
  101.74837000    -6.49485000   -63.70000000
  101.74840000    -6.49485000   -63.40000000
  101.74841000    -6.49484000   -63.20000000
  101.74844000    -6.49482000   -63.20000000
  101.74844000    -6.49481000   -63.50000000
  101.74845000    -6.49479000   -64.10000000
  101.74845000    -6.49476000   -63.90000000
  101.74844000    -6.49474000   -63.60000000
  101.74844000    -6.49470000   -63.50000000
  101.74843000    -6.49467000   -63.70000000
  101.74841000    -6.49464000   -63.40000000
  101.74840000    -6.49460000   -63.40000000
  101.74838000    -6.49456000   -63.50000000
  101.74837000    -6.49453000   -63.30000000
  101.74835000    -6.49450000   -63.10000000
  101.74834000    -6.49447000   -63.20000000
  101.74833000    -6.49444000   -63.20000000
  101.74832000    -6.49442000   -62.80000000
  101.74832000    -6.49440000   -62.50000000
  101.74833000    -6.49438000   -62.60000000
  101.74834000    -6.49436000   -62.80000000
  101.74836000    -6.49435000   -62.50000000
  101.74838000    -6.49435000   -62.90000000
  101.74841000    -6.49435000   -62.70000000
  101.74844000    -6.49435000   -62.40000000
  101.74847000    -6.49436000   -62.20000000
  101.74851000    -6.49437000   -62.10000000
  101.74856000    -6.49440000   -62.40000000
  101.74860000    -6.49442000   -62.70000000
  101.74864000    -6.49445000   -62.90000000
  101.74869000    -6.49447000   -63.60000000
  101.74873000    -6.49450000   -63.30000000
  101.74876000    -6.49453000   -63.70000000
  101.74879000    -6.49455000   -63.70000000
  101.74882000    -6.49457000   -63.40000000
  101.74884000    -6.49459000   -63.70000000
  101.74886000    -6.49461000   -63.20000000
  101.74887000    -6.49463000   -64.00000000
  101.74887000    -6.49464000   -64.10000000
  101.74887000    -6.49465000   -63.90000000
  101.74886000    -6.49466000   -64.20000000
  101.74886000    -6.49466000   -63.40000000
  101.74885000    -6.49465000   -63.20000000
  101.74884000    -6.49465000   -63.30000000
  101.74884000    -6.49464000   -63.00000000
  101.74884000    -6.49463000   -63.40000000
  101.74885000    -6.49462000   -62.90000000
  101.74886000    -6.49461000   -63.40000000
  101.74886000    -6.49461000   -63.70000000
  101.74887000    -6.49460000   -63.10000000
  101.74889000    -6.49460000   -63.20000000
  101.74890000    -6.49460000   -62.70000000
  101.74891000    -6.49460000   -63.20000000
  101.74892000    -6.49460000   -63.20000000
  101.74894000    -6.49460000   -62.60000000
  101.74895000    -6.49461000   -62.90000000
  101.74898000    -6.49461000   -62.70000000
  101.74900000    -6.49462000   -63.00000000
  101.74903000    -6.49463000   -62.80000000
  101.74906000    -6.49464000   -62.50000000
  101.74910000    -6.49466000   -62.80000000
  101.74914000    -6.49468000   -63.10000000
  101.74917000    -6.49469000   -63.40000000
  101.74919000    -6.49471000   -63.80000000
  101.74921000    -6.49473000   -64.20000000
  101.74921000    -6.49474000   -63.70000000
  101.74921000    -6.49475000   -64.40000000
  101.74920000    -6.49475000   -64.30000000
  101.74918000    -6.49475000   -64.30000000
  101.74915000    -6.49474000   -64.30000000
  101.74911000    -6.49473000   -63.50000000
  101.74908000    -6.49472000   -62.90000000
  101.74905000    -6.49471000   -62.30000000
  101.74904000    -6.49471000   -62.10000000
  101.74902000    -6.49471000   -62.20000000
  101.74904000    -6.49473000   -62.00000000
  101.74906000    -6.49475000   -61.90000000
  101.74911000    -6.49477000   -61.90000000
  101.74918000    -6.49481000   -61.70000000
  101.74926000    -6.49485000   -61.90000000
  101.74936000    -6.49490000   -61.50000000
  101.74948000    -6.49497000   -60.70000000
  101.74963000    -6.49505000   -60.60000000
  101.74980000    -6.49514000   -59.80000000
  101.75000000    -6.49526000   -60.20000000
  101.75024000    -6.49539000   -59.90000000
  101.75050000    -6.49554000   -59.40000000
  101.75080000    -6.49571000   -60.20000000
  101.75111000    -6.49589000   -59.80000000
  101.75143000    -6.49610000   -60.10000000
  101.75178000    -6.49632000   -60.30000000
  101.75213000    -6.49656000   -60.50000000
  101.75250000    -6.49682000   -60.90000000
  101.75287000    -6.49710000   -62.30000000
  101.75323000    -6.49740000   -64.20000000
  101.75356000    -6.49773000   -65.80000000
  101.75381000    -6.49808000   -66.90000000
  101.75399000    -6.49846000   -68.80000000
  101.75408000    -6.49885000   -71.50000000
  101.75410000    -6.49926000   -74.10000000
  101.75405000    -6.49967000   -76.50000000
  101.75395000    -6.50006000   -77.40000000
  101.75380000    -6.50043000   -76.60000000
  101.75360000    -6.50075000   -75.20000000
  101.75335000    -6.50099000   -71.90000000
  101.75306000    -6.50112000   -68.40000000
  101.75273000    -6.50116000   -68.20000000
  101.75237000    -6.50109000   -68.40000000
  101.75201000    -6.50094000   -69.40000000
  101.75164000    -6.50072000   -70.10000000
  101.75128000    -6.50048000   -70.90000000
  101.75092000    -6.50022000   -72.00000000
  101.75056000    -6.49997000   -70.40000000
  101.75022000    -6.49972000   -68.10000000
  101.74989000    -6.49948000   -66.40000000
  101.74957000    -6.49925000   -65.40000000
  101.74925000    -6.49902000   -65.10000000
  101.74895000    -6.49880000   -64.60000000
  101.74865000    -6.49859000   -63.20000000
  101.74836000    -6.49838000   -62.50000000
  101.74809000    -6.49818000   -62.30000000
  101.74782000    -6.49798000   -62.00000000
  101.74755000    -6.49779000   -62.50000000
  101.74730000    -6.49759000   -62.20000000
  101.74705000    -6.49740000   -62.10000000
  101.74680000    -6.49721000   -62.70000000
  101.74655000    -6.49702000   -61.90000000
  101.74631000    -6.49684000   -62.20000000
  101.74606000    -6.49665000   -62.80000000
  101.74582000    -6.49647000   -63.50000000
  101.74558000    -6.49628000   -62.70000000
  101.74535000    -6.49609000   -62.60000000
  101.74512000    -6.49590000   -62.80000000
  101.74488000    -6.49571000   -62.90000000
  101.74465000    -6.49550000   -62.20000000
  101.74443000    -6.49530000   -62.00000000
  101.74420000    -6.49509000   -63.00000000
  101.74397000    -6.49488000   -63.10000000
  101.74375000    -6.49466000   -63.10000000
  101.74352000    -6.49444000   -62.80000000
  101.74330000    -6.49421000   -62.80000000
  101.74306000    -6.49397000   -64.20000000
  101.74281000    -6.49371000   -63.80000000
  101.74255000    -6.49342000   -64.70000000
  101.74226000    -6.49309000   -64.80000000
  101.74194000    -6.49274000   -64.60000000
  101.74160000    -6.49235000   -65.30000000
  101.74123000    -6.49192000   -65.00000000
  101.74084000    -6.49146000   -66.60000000
  101.74040000    -6.49095000   -66.90000000
  101.73995000    -6.49041000   -66.30000000
  101.73946000    -6.48983000   -66.00000000
  101.73895000    -6.48922000   -66.10000000
  101.73842000    -6.48857000   -65.70000000
  101.73786000    -6.48791000   -65.70000000
  101.73730000    -6.48723000   -65.60000000
  101.73672000    -6.48653000   -65.30000000
  101.73613000    -6.48583000   -65.60000000
  101.73553000    -6.48511000   -65.40000000
  101.73491000    -6.48438000   -65.60000000
  101.73428000    -6.48363000   -65.30000000
  101.73363000    -6.48288000   -65.80000000
  101.73296000    -6.48212000   -66.10000000
  101.73228000    -6.48134000   -65.80000000
  101.73158000    -6.48055000   -65.60000000
  101.73087000    -6.47974000   -65.80000000
  101.73015000    -6.47892000   -65.50000000
  101.72942000    -6.47809000   -65.50000000
  101.72869000    -6.47726000   -67.60000000
  101.72796000    -6.47642000   -66.60000000
  101.72723000    -6.47559000   -65.10000000
  101.72649000    -6.47476000   -64.90000000
  101.72577000    -6.47393000   -65.00000000
  101.72503000    -6.47309000   -65.80000000
  101.72430000    -6.47225000   -65.30000000
  101.72356000    -6.47141000   -65.50000000
  101.72282000    -6.47056000   -66.00000000
  101.72207000    -6.46971000   -66.80000000
  101.72131000    -6.46886000   -66.40000000
  101.72056000    -6.46801000   -65.60000000
  101.71981000    -6.46716000   -65.60000000
  101.71907000    -6.46631000   -65.40000000
  101.71833000    -6.46546000   -65.20000000
  101.71760000    -6.46463000   -64.80000000
  101.71687000    -6.46379000   -64.80000000
  101.71614000    -6.46296000   -65.50000000
  101.71542000    -6.46213000   -65.20000000
  101.71470000    -6.46130000   -66.10000000
  101.71399000    -6.46048000   -65.70000000
  101.71329000    -6.45967000   -66.20000000
  101.71259000    -6.45886000   -66.10000000
  101.71189000    -6.45805000   -66.60000000
  101.71119000    -6.45726000   -67.50000000
  101.71049000    -6.45646000   -66.90000000
  101.70978000    -6.45564000   -67.40000000
  101.70906000    -6.45483000   -66.60000000
  101.70834000    -6.45401000   -67.10000000
  101.70760000    -6.45319000   -67.00000000
  101.70687000    -6.45237000   -67.60000000
  101.70613000    -6.45156000   -67.50000000
  101.70539000    -6.45074000   -66.60000000
  101.70464000    -6.44992000   -68.10000000
  101.70389000    -6.44911000   -68.00000000
  101.70313000    -6.44828000   -67.50000000
  101.70238000    -6.44746000   -67.30000000
  101.70163000    -6.44664000   -67.60000000
  101.70087000    -6.44583000   -69.80000000
  101.70012000    -6.44503000   -68.70000000
  101.69936000    -6.44424000   -67.20000000
  101.69861000    -6.44344000   -66.70000000
  101.69785000    -6.44264000   -68.40000000
  101.69707000    -6.44183000   -69.90000000
  101.69631000    -6.44102000   -68.90000000
  101.69555000    -6.44020000   -69.20000000
  101.69479000    -6.43939000   -68.50000000
  101.69404000    -6.43859000   -68.40000000
  101.69328000    -6.43779000   -67.80000000
  101.69254000    -6.43699000   -67.30000000
  101.69180000    -6.43618000   -68.00000000
  101.69104000    -6.43536000   -68.90000000
  101.69028000    -6.43453000   -70.10000000
  101.68951000    -6.43370000   -69.50000000
  101.68874000    -6.43286000   -67.80000000
  101.68797000    -6.43203000   -67.20000000
  101.68721000    -6.43119000   -68.30000000
  101.68645000    -6.43036000   -68.40000000
  101.68570000    -6.42954000   -68.90000000
  101.68494000    -6.42871000   -68.70000000
  101.68417000    -6.42788000   -68.10000000
  101.68340000    -6.42705000   -69.60000000
  101.68262000    -6.42621000   -70.70000000
  101.68185000    -6.42539000   -69.50000000
  101.68109000    -6.42456000   -68.00000000
  101.68034000    -6.42373000   -68.40000000
  101.67958000    -6.42292000   -69.80000000
  101.67883000    -6.42211000   -70.30000000
  101.67807000    -6.42129000   -69.10000000
  101.67732000    -6.42047000   -69.00000000
  101.67657000    -6.41965000   -69.00000000
  101.67580000    -6.41883000   -68.50000000
  101.67505000    -6.41802000   -68.90000000
  101.67429000    -6.41720000   -69.20000000
  101.67352000    -6.41639000   -69.30000000
  101.67275000    -6.41557000   -69.30000000
  101.67197000    -6.41474000   -70.10000000
  101.67120000    -6.41392000   -70.20000000
  101.67043000    -6.41310000   -69.50000000
  101.66965000    -6.41227000   -69.40000000
  101.66890000    -6.41145000   -68.20000000
  101.66814000    -6.41063000   -69.00000000
  101.66740000    -6.40981000   -68.70000000
  101.66664000    -6.40899000   -69.30000000
  101.66588000    -6.40816000   -70.40000000
  101.66512000    -6.40732000   -70.10000000
  101.66434000    -6.40649000   -71.10000000
  101.66355000    -6.40565000   -69.90000000
  101.66278000    -6.40482000   -70.20000000
  101.66200000    -6.40400000   -70.30000000
  101.66124000    -6.40318000   -69.60000000
  101.66048000    -6.40236000   -69.50000000
  101.65973000    -6.40154000   -69.00000000
  101.65897000    -6.40073000   -71.00000000
  101.65821000    -6.39991000   -70.90000000
  101.65746000    -6.39909000   -70.30000000
  101.65670000    -6.39826000   -69.70000000
  101.65594000    -6.39744000   -70.90000000
  101.65520000    -6.39663000   -71.60000000
  101.65444000    -6.39581000   -70.40000000
  101.65369000    -6.39498000   -69.90000000
  101.65293000    -6.39415000   -71.80000000
  101.65217000    -6.39332000   -72.60000000
  101.65140000    -6.39247000   -71.40000000
  101.65063000    -6.39162000   -70.60000000
  101.64986000    -6.39078000   -70.60000000
  101.64911000    -6.38995000   -71.10000000
  101.64836000    -6.38912000   -70.40000000
  101.64761000    -6.38828000   -71.00000000
  101.64686000    -6.38745000   -71.70000000
  101.64610000    -6.38663000   -71.60000000
  101.64534000    -6.38579000   -71.20000000
  101.64458000    -6.38495000   -71.10000000
  101.64383000    -6.38412000   -70.90000000
  101.64308000    -6.38329000   -71.40000000
  101.64233000    -6.38245000   -71.20000000
  101.64158000    -6.38162000   -71.40000000
  101.64082000    -6.38079000   -71.40000000
  101.64007000    -6.37996000   -71.90000000
  101.63931000    -6.37913000   -72.60000000
  101.63853000    -6.37829000   -72.50000000
  101.63776000    -6.37745000   -72.40000000
  101.63699000    -6.37661000   -71.60000000
  101.63622000    -6.37577000   -71.90000000
  101.63545000    -6.37492000   -71.90000000
  101.63468000    -6.37408000   -72.10000000
  101.63392000    -6.37324000   -71.20000000
  101.63316000    -6.37240000   -71.40000000
  101.63238000    -6.37156000   -72.50000000
  101.63158000    -6.37071000   -73.20000000
  101.63080000    -6.36987000   -72.70000000
  101.63002000    -6.36902000   -71.70000000
  101.62926000    -6.36819000   -71.90000000
  101.62850000    -6.36735000   -71.50000000
  101.62775000    -6.36653000   -71.30000000
  101.62701000    -6.36570000   -70.80000000
  101.62627000    -6.36487000   -71.40000000
  101.62553000    -6.36403000   -71.60000000
  101.62479000    -6.36319000   -72.30000000
  101.62404000    -6.36235000   -72.60000000
  101.62330000    -6.36153000   -71.60000000
  101.62257000    -6.36070000   -72.00000000
  101.62183000    -6.35988000   -72.20000000
  101.62111000    -6.35907000   -71.70000000
  101.62038000    -6.35826000   -71.30000000
  101.61967000    -6.35745000   -72.50000000
  101.61893000    -6.35663000   -73.80000000
  101.61820000    -6.35580000   -73.10000000
  101.61748000    -6.35498000   -72.40000000
  101.61675000    -6.35415000   -73.20000000
  101.61602000    -6.35332000   -73.40000000
  101.61530000    -6.35249000   -73.10000000
  101.61456000    -6.35166000   -73.30000000
  101.61383000    -6.35082000   -73.70000000
  101.61309000    -6.34998000   -73.20000000
  101.61234000    -6.34913000   -73.70000000
  101.61160000    -6.34829000   -74.50000000
  101.61086000    -6.34744000   -74.20000000
  101.61012000    -6.34660000   -73.40000000
  101.60939000    -6.34576000   -71.40000000
  101.60867000    -6.34492000   -73.00000000
  101.60793000    -6.34409000   -74.40000000
  101.60719000    -6.34325000   -74.00000000
  101.60646000    -6.34241000   -74.00000000
  101.60572000    -6.34156000   -73.90000000
  101.60497000    -6.34071000   -75.70000000
  101.60421000    -6.33988000   -74.50000000
  101.60346000    -6.33904000   -73.50000000
  101.60271000    -6.33820000   -74.50000000
  101.60195000    -6.33735000   -74.90000000
  101.60119000    -6.33652000   -75.10000000
  101.60043000    -6.33567000   -74.30000000
  101.59966000    -6.33483000   -74.30000000
  101.59889000    -6.33399000   -74.20000000
  101.59813000    -6.33317000   -74.30000000
  101.59737000    -6.33235000   -75.30000000
  101.59662000    -6.33152000   -74.60000000
  101.59587000    -6.33071000   -73.90000000
  101.59513000    -6.32989000   -74.30000000
  101.59438000    -6.32907000   -75.30000000
  101.59363000    -6.32825000   -75.10000000
  101.59287000    -6.32742000   -73.80000000
  101.59212000    -6.32660000   -74.30000000
  101.59138000    -6.32577000   -74.90000000
  101.59063000    -6.32495000   -75.00000000
  101.58988000    -6.32414000   -73.90000000
  101.58913000    -6.32333000   -73.60000000
  101.58838000    -6.32252000   -74.30000000
  101.58762000    -6.32171000   -75.00000000
  101.58687000    -6.32090000   -74.80000000
  101.58612000    -6.32009000   -75.00000000
  101.58537000    -6.31928000   -73.70000000
  101.58464000    -6.31849000   -73.50000000
  101.58392000    -6.31769000   -73.70000000
  101.58319000    -6.31689000   -73.30000000
  101.58247000    -6.31610000   -74.80000000
  101.58175000    -6.31530000   -74.70000000
  101.58102000    -6.31451000   -75.40000000
  101.58028000    -6.31370000   -74.70000000
  101.57956000    -6.31290000   -74.30000000
  101.57883000    -6.31211000   -75.20000000
  101.57809000    -6.31131000   -74.90000000
  101.57737000    -6.31050000   -74.80000000
  101.57664000    -6.30969000   -75.40000000
  101.57590000    -6.30888000   -76.40000000
  101.57516000    -6.30807000   -75.70000000
  101.57442000    -6.30725000   -75.50000000
  101.57368000    -6.30643000   -75.40000000
  101.57294000    -6.30561000   -75.80000000
  101.57220000    -6.30480000   -75.70000000
  101.57147000    -6.30398000   -75.00000000
  101.57074000    -6.30317000   -74.20000000
  101.57001000    -6.30235000   -74.90000000
  101.56927000    -6.30154000   -75.60000000
  101.56852000    -6.30073000   -76.40000000
  101.56776000    -6.29991000   -75.90000000
  101.56702000    -6.29909000   -75.40000000
  101.56627000    -6.29827000   -75.30000000
  101.56552000    -6.29746000   -75.60000000
  101.56477000    -6.29665000   -76.10000000
  101.56403000    -6.29583000   -74.60000000
  101.56329000    -6.29502000   -74.60000000
  101.56255000    -6.29420000   -75.80000000
  101.56179000    -6.29337000   -76.60000000
  101.56103000    -6.29255000   -76.20000000
  101.56027000    -6.29173000   -75.50000000
  101.55952000    -6.29091000   -76.00000000
  101.55875000    -6.29010000   -75.60000000
  101.55800000    -6.28930000   -74.60000000
  101.55724000    -6.28849000   -74.80000000
  101.55648000    -6.28767000   -75.90000000
  101.55572000    -6.28684000   -76.00000000
  101.55495000    -6.28600000   -75.80000000
  101.55418000    -6.28516000   -75.70000000
  101.55342000    -6.28433000   -75.70000000
  101.55267000    -6.28350000   -75.50000000
  101.55191000    -6.28267000   -73.80000000
  101.55116000    -6.28185000   -73.90000000
  101.55042000    -6.28102000   -74.50000000
  101.54967000    -6.28019000   -75.50000000
  101.54892000    -6.27937000   -76.40000000
  101.54816000    -6.27854000   -76.50000000
  101.54740000    -6.27772000   -76.80000000
  101.54665000    -6.27692000   -74.40000000
  101.54591000    -6.27611000   -74.00000000
  101.54517000    -6.27531000   -74.40000000
  101.54444000    -6.27451000   -75.00000000
  101.54371000    -6.27370000   -75.60000000
  101.54297000    -6.27288000   -74.90000000
  101.54223000    -6.27207000   -77.00000000
  101.54148000    -6.27126000   -76.40000000
  101.54074000    -6.27045000   -75.60000000
  101.54000000    -6.26964000   -74.90000000
  101.53926000    -6.26884000   -74.60000000
  101.53852000    -6.26804000   -76.00000000
  101.53777000    -6.26725000   -75.10000000
  101.53703000    -6.26644000   -75.90000000
  101.53627000    -6.26564000   -75.80000000
  101.53551000    -6.26483000   -76.20000000
  101.53475000    -6.26403000   -75.70000000
  101.53400000    -6.26323000   -75.10000000
  101.53326000    -6.26244000   -74.80000000
  101.53251000    -6.26164000   -74.00000000
  101.53177000    -6.26085000   -74.50000000
  101.53101000    -6.26004000   -75.40000000
  101.53027000    -6.25922000   -75.40000000
  101.52951000    -6.25840000   -75.10000000
  101.52875000    -6.25758000   -75.70000000
  101.52800000    -6.25677000   -75.10000000
  101.52725000    -6.25596000   -74.20000000
  101.52651000    -6.25516000   -73.10000000
  101.52577000    -6.25435000   -73.90000000
  101.52502000    -6.25355000   -75.00000000
  101.52428000    -6.25275000   -74.70000000
  101.52353000    -6.25194000   -75.00000000
  101.52278000    -6.25113000   -75.60000000
  101.52203000    -6.25033000   -76.30000000
  101.52127000    -6.24953000   -75.20000000
  101.52053000    -6.24873000   -74.50000000
  101.51978000    -6.24792000   -74.20000000
  101.51903000    -6.24711000   -74.80000000
  101.51827000    -6.24629000   -75.60000000
  101.51752000    -6.24547000   -75.00000000
  101.51676000    -6.24464000   -75.30000000
  101.51599000    -6.24380000   -76.00000000
  101.51522000    -6.24296000   -76.00000000
  101.51446000    -6.24213000   -75.20000000
  101.51369000    -6.24130000   -74.00000000
  101.51292000    -6.24046000   -75.30000000
  101.51215000    -6.23962000   -76.20000000
  101.51138000    -6.23878000   -74.60000000
  101.51062000    -6.23793000   -74.00000000
  101.50986000    -6.23707000   -74.60000000
  101.50909000    -6.23622000   -74.50000000
  101.50832000    -6.23538000   -73.80000000
  101.50757000    -6.23453000   -72.50000000
  101.50682000    -6.23369000   -74.10000000
  101.50607000    -6.23286000   -74.60000000
  101.50532000    -6.23202000   -73.90000000
  101.50457000    -6.23118000   -74.40000000
  101.50381000    -6.23034000   -74.80000000
  101.50306000    -6.22950000   -75.20000000
  101.50230000    -6.22866000   -73.40000000
  101.50156000    -6.22783000   -73.00000000
  101.50082000    -6.22700000   -73.70000000
  101.50008000    -6.22618000   -73.70000000
  101.49934000    -6.22536000   -74.00000000
  101.49860000    -6.22453000   -73.90000000
  101.49786000    -6.22371000   -74.50000000
  101.49710000    -6.22289000   -73.90000000
  101.49635000    -6.22207000   -73.60000000
  101.49561000    -6.22125000   -73.60000000
  101.49487000    -6.22044000   -73.40000000
  101.49413000    -6.21962000   -73.10000000
  101.49338000    -6.21880000   -72.70000000
  101.49263000    -6.21798000   -73.00000000
  101.49187000    -6.21715000   -73.30000000
  101.49112000    -6.21633000   -74.10000000
  101.49036000    -6.21550000   -73.40000000
  101.48962000    -6.21468000   -73.60000000
  101.48887000    -6.21386000   -73.20000000
  101.48812000    -6.21303000   -72.70000000
  101.48737000    -6.21220000   -72.60000000
  101.48662000    -6.21137000   -73.30000000
  101.48586000    -6.21054000   -74.30000000
  101.48510000    -6.20971000   -73.90000000
  101.48434000    -6.20887000   -72.80000000
  101.48360000    -6.20803000   -72.20000000
  101.48286000    -6.20719000   -72.90000000
  101.48211000    -6.20635000   -72.70000000
  101.48136000    -6.20550000   -72.60000000
  101.48061000    -6.20466000   -72.30000000
  101.47987000    -6.20382000   -72.30000000
  101.47912000    -6.20297000   -73.90000000
  101.47836000    -6.20213000   -73.80000000
  101.47762000    -6.20129000   -73.20000000
  101.47687000    -6.20047000   -73.00000000
  101.47612000    -6.19965000   -72.50000000
  101.47537000    -6.19884000   -73.00000000
  101.47462000    -6.19803000   -72.70000000
  101.47387000    -6.19722000   -72.70000000
  101.47311000    -6.19641000   -73.50000000
  101.47235000    -6.19559000   -72.50000000
  101.47159000    -6.19476000   -72.60000000
  101.47083000    -6.19393000   -71.80000000
  101.47007000    -6.19310000   -72.10000000
  101.46932000    -6.19227000   -72.50000000
  101.46857000    -6.19144000   -72.20000000
  101.46783000    -6.19061000   -71.80000000
  101.46707000    -6.18978000   -72.30000000
  101.46632000    -6.18895000   -73.30000000
  101.46557000    -6.18811000   -72.50000000
  101.46482000    -6.18727000   -71.70000000
  101.46407000    -6.18644000   -71.40000000
  101.46330000    -6.18562000   -72.70000000
  101.46254000    -6.18480000   -72.70000000
  101.46176000    -6.18397000   -72.50000000
  101.46098000    -6.18315000   -72.60000000
  101.46020000    -6.18234000   -72.30000000
  101.45942000    -6.18151000   -71.60000000
  101.45864000    -6.18068000   -71.00000000
  101.45788000    -6.17984000   -71.10000000
  101.45712000    -6.17901000   -71.50000000
  101.45635000    -6.17817000   -71.30000000
  101.45560000    -6.17733000   -71.20000000
  101.45485000    -6.17650000   -71.20000000
  101.45409000    -6.17566000   -72.00000000
  101.45334000    -6.17483000   -73.30000000
  101.45258000    -6.17399000   -72.50000000
  101.45183000    -6.17315000   -71.60000000
  101.45107000    -6.17232000   -71.70000000
  101.45030000    -6.17149000   -72.50000000
  101.44954000    -6.17066000   -71.80000000
  101.44878000    -6.16983000   -70.70000000
  101.44803000    -6.16900000   -70.80000000
  101.44728000    -6.16818000   -70.30000000
  101.44653000    -6.16736000   -70.80000000
  101.44579000    -6.16652000   -70.20000000
  101.44505000    -6.16569000   -70.50000000
  101.44431000    -6.16487000   -69.50000000
  101.44358000    -6.16404000   -70.10000000
  101.44284000    -6.16322000   -71.20000000
  101.44211000    -6.16240000   -70.60000000
  101.44137000    -6.16158000   -70.50000000
  101.44062000    -6.16076000   -70.70000000
  101.43987000    -6.15992000   -71.50000000
  101.43910000    -6.15909000   -71.00000000
  101.43834000    -6.15825000   -70.40000000
  101.43756000    -6.15742000   -71.30000000
  101.43678000    -6.15661000   -70.80000000
  101.43600000    -6.15580000   -69.90000000
  101.43523000    -6.15500000   -70.40000000
  101.43446000    -6.15420000   -70.20000000
  101.43369000    -6.15341000   -69.90000000
  101.43291000    -6.15261000   -68.60000000
  101.43215000    -6.15181000   -69.10000000
  101.43139000    -6.15102000   -69.80000000
  101.43063000    -6.15023000   -70.00000000
  101.42986000    -6.14944000   -70.00000000
  101.42910000    -6.14865000   -70.10000000
  101.42833000    -6.14786000   -69.90000000
  101.42757000    -6.14706000   -69.40000000
  101.42681000    -6.14626000   -69.10000000
  101.42606000    -6.14546000   -69.00000000
  101.42532000    -6.14467000   -69.10000000
  101.42458000    -6.14387000   -68.60000000
  101.42384000    -6.14308000   -69.30000000
  101.42310000    -6.14228000   -69.50000000
  101.42237000    -6.14148000   -69.30000000
  101.42163000    -6.14068000   -68.90000000
  101.42088000    -6.13986000   -70.10000000
  101.42013000    -6.13904000   -70.30000000
  101.41938000    -6.13822000   -69.30000000
  101.41863000    -6.13740000   -69.10000000
  101.41789000    -6.13659000   -69.90000000
  101.41715000    -6.13578000   -69.30000000
  101.41642000    -6.13497000   -67.90000000
  101.41570000    -6.13416000   -68.90000000
  101.41496000    -6.13336000   -70.20000000
  101.41423000    -6.13255000   -70.40000000
  101.41349000    -6.13173000   -69.40000000
  101.41275000    -6.13092000   -69.80000000
  101.41202000    -6.13011000   -69.90000000
  101.41128000    -6.12930000   -69.20000000
  101.41055000    -6.12849000   -68.10000000
  101.40984000    -6.12769000   -67.50000000
  101.40911000    -6.12688000   -67.80000000
  101.40839000    -6.12607000   -68.50000000
  101.40765000    -6.12525000   -69.10000000
  101.40692000    -6.12443000   -68.00000000
  101.40619000    -6.12361000   -68.20000000
  101.40546000    -6.12279000   -70.10000000
  101.40472000    -6.12197000   -69.10000000
  101.40398000    -6.12115000   -68.20000000
  101.40326000    -6.12033000   -67.20000000
  101.40252000    -6.11950000   -69.30000000
  101.40178000    -6.11868000   -69.00000000
  101.40105000    -6.11786000   -66.60000000
  101.40031000    -6.11704000   -67.10000000
  101.39958000    -6.11623000   -68.80000000
  101.39885000    -6.11540000   -68.20000000
  101.39812000    -6.11458000   -67.00000000
  101.39738000    -6.11375000   -68.90000000
  101.39664000    -6.11292000   -70.20000000
  101.39590000    -6.11209000   -69.50000000
  101.39516000    -6.11127000   -67.70000000
  101.39445000    -6.11046000   -67.70000000
  101.39372000    -6.10966000   -68.10000000
  101.39301000    -6.10886000   -67.30000000
  101.39230000    -6.10807000   -67.10000000
  101.39159000    -6.10729000   -67.00000000
  101.39088000    -6.10650000   -67.60000000
  101.39017000    -6.10570000   -67.30000000
  101.38945000    -6.10489000   -67.60000000
  101.38873000    -6.10408000   -67.70000000
  101.38800000    -6.10327000   -67.90000000
  101.38728000    -6.10245000   -68.00000000
  101.38656000    -6.10164000   -67.00000000
  101.38584000    -6.10083000   -67.30000000
  101.38512000    -6.10003000   -66.50000000
  101.38441000    -6.09922000   -67.40000000
  101.38369000    -6.09840000   -66.40000000
  101.38297000    -6.09758000   -66.90000000
  101.38225000    -6.09676000   -66.90000000
  101.38152000    -6.09594000   -67.70000000
  101.38079000    -6.09512000   -67.30000000
  101.38007000    -6.09431000   -67.10000000
  101.37935000    -6.09350000   -68.20000000
  101.37863000    -6.09270000   -67.70000000
  101.37791000    -6.09190000   -67.60000000
  101.37718000    -6.09109000   -66.90000000
  101.37646000    -6.09028000   -67.10000000
  101.37574000    -6.08947000   -67.20000000
  101.37502000    -6.08866000   -67.00000000
  101.37430000    -6.08784000   -65.90000000
  101.37358000    -6.08702000   -66.70000000
  101.37284000    -6.08620000   -67.30000000
  101.37209000    -6.08537000   -68.20000000
  101.37135000    -6.08455000   -67.70000000
  101.37061000    -6.08373000   -67.30000000
  101.36987000    -6.08294000   -68.40000000
  101.36913000    -6.08215000   -67.50000000
  101.36841000    -6.08137000   -66.40000000
  101.36769000    -6.08058000   -65.70000000
  101.36696000    -6.07979000   -67.50000000
  101.36623000    -6.07900000   -67.90000000
  101.36548000    -6.07819000   -67.30000000
  101.36473000    -6.07738000   -66.50000000
  101.36398000    -6.07657000   -68.40000000
  101.36323000    -6.07577000   -67.50000000
  101.36247000    -6.07496000   -66.50000000
  101.36172000    -6.07416000   -66.60000000
  101.36097000    -6.07336000   -66.30000000
  101.36021000    -6.07255000   -66.70000000
  101.35947000    -6.07173000   -65.50000000
  101.35871000    -6.07091000   -66.80000000
  101.35796000    -6.07010000   -66.80000000
  101.35722000    -6.06928000   -66.20000000
  101.35648000    -6.06846000   -65.60000000
  101.35574000    -6.06764000   -66.00000000
  101.35500000    -6.06683000   -66.90000000
  101.35426000    -6.06602000   -66.10000000
  101.35352000    -6.06521000   -65.30000000
  101.35277000    -6.06439000   -66.40000000
  101.35202000    -6.06358000   -67.50000000
  101.35127000    -6.06277000   -66.20000000
  101.35053000    -6.06196000   -65.40000000
  101.34979000    -6.06115000   -65.70000000
  101.34905000    -6.06033000   -66.50000000
  101.34831000    -6.05952000   -66.60000000
  101.34756000    -6.05871000   -65.90000000
  101.34681000    -6.05789000   -66.20000000
  101.34605000    -6.05707000   -66.90000000
  101.34529000    -6.05625000   -67.10000000
  101.34454000    -6.05544000   -66.00000000
  101.34378000    -6.05463000   -65.10000000
  101.34303000    -6.05381000   -65.70000000
  101.34226000    -6.05299000   -66.90000000
  101.34150000    -6.05217000   -67.10000000
  101.34073000    -6.05135000   -65.90000000
  101.33996000    -6.05052000   -65.90000000
  101.33919000    -6.04970000   -66.20000000
  101.33842000    -6.04888000   -65.50000000
  101.33767000    -6.04807000   -64.90000000
  101.33691000    -6.04727000   -65.20000000
  101.33617000    -6.04647000   -65.60000000
  101.33541000    -6.04567000   -65.30000000
  101.33466000    -6.04487000   -64.60000000
  101.33391000    -6.04406000   -64.60000000
  101.33315000    -6.04324000   -65.30000000
  101.33240000    -6.04242000   -65.00000000
  101.33164000    -6.04160000   -65.40000000
  101.33089000    -6.04078000   -65.20000000
  101.33014000    -6.03997000   -64.90000000
  101.32938000    -6.03916000   -64.40000000
  101.32863000    -6.03835000   -64.00000000
  101.32787000    -6.03754000   -65.30000000
  101.32710000    -6.03672000   -64.70000000
  101.32634000    -6.03589000   -64.50000000
  101.32558000    -6.03507000   -64.30000000
  101.32482000    -6.03425000   -64.30000000
  101.32407000    -6.03343000   -64.40000000
  101.32331000    -6.03261000   -63.30000000
  101.32256000    -6.03179000   -64.40000000
  101.32182000    -6.03098000   -65.00000000
  101.32106000    -6.03015000   -65.70000000
  101.32031000    -6.02932000   -64.70000000
  101.31956000    -6.02849000   -63.80000000
  101.31881000    -6.02766000   -64.30000000
  101.31805000    -6.02684000   -64.40000000
  101.31731000    -6.02602000   -64.30000000
  101.31656000    -6.02520000   -64.20000000
  101.31581000    -6.02439000   -64.10000000
  101.31506000    -6.02358000   -64.00000000
  101.31430000    -6.02276000   -64.80000000
  101.31355000    -6.02193000   -64.80000000
  101.31279000    -6.02110000   -64.30000000
  101.31205000    -6.02026000   -63.30000000
  101.31132000    -6.01942000   -63.40000000
  101.31059000    -6.01859000   -63.30000000
  101.30986000    -6.01776000   -63.30000000
  101.30913000    -6.01693000   -63.80000000
  101.30840000    -6.01610000   -63.80000000
  101.30765000    -6.01527000   -64.20000000
  101.30690000    -6.01443000   -63.90000000
  101.30616000    -6.01360000   -64.00000000
  101.30543000    -6.01277000   -63.60000000
  101.30470000    -6.01194000   -63.50000000
  101.30397000    -6.01111000   -63.10000000
  101.30325000    -6.01029000   -62.50000000
  101.30253000    -6.00946000   -62.90000000
  101.30180000    -6.00863000   -64.30000000
  101.30107000    -6.00779000   -64.00000000
  101.30034000    -6.00695000   -64.20000000
  101.29961000    -6.00612000   -63.90000000
  101.29887000    -6.00530000   -64.30000000
  101.29813000    -6.00448000   -63.80000000
  101.29739000    -6.00366000   -63.30000000
  101.29665000    -6.00284000   -63.40000000
  101.29591000    -6.00202000   -63.00000000
  101.29516000    -6.00119000   -63.60000000
  101.29441000    -6.00036000   -63.20000000
  101.29366000    -5.99953000   -62.60000000
  101.29292000    -5.99871000   -62.90000000
  101.29217000    -5.99788000   -62.50000000
  101.29141000    -5.99706000   -63.30000000
  101.29066000    -5.99623000   -62.90000000
  101.28991000    -5.99541000   -62.70000000
  101.28916000    -5.99458000   -62.70000000
  101.28841000    -5.99376000   -62.80000000
  101.28767000    -5.99294000   -63.20000000
  101.28693000    -5.99212000   -61.80000000
  101.28619000    -5.99130000   -61.80000000
  101.28544000    -5.99049000   -63.00000000
  101.28468000    -5.98966000   -63.70000000
  101.28393000    -5.98884000   -63.30000000
  101.28316000    -5.98800000   -64.00000000
  101.28240000    -5.98717000   -64.10000000
  101.28164000    -5.98633000   -63.80000000
  101.28088000    -5.98549000   -62.00000000
  101.28012000    -5.98466000   -62.60000000
  101.27937000    -5.98384000   -63.50000000
  101.27862000    -5.98301000   -62.70000000
  101.27787000    -5.98218000   -61.70000000
  101.27711000    -5.98135000   -63.10000000
  101.27634000    -5.98052000   -64.20000000
  101.27558000    -5.97968000   -63.20000000
  101.27482000    -5.97884000   -62.50000000
  101.27406000    -5.97801000   -63.60000000
  101.27330000    -5.97718000   -63.70000000
  101.27254000    -5.97635000   -62.50000000
  101.27180000    -5.97552000   -62.30000000
  101.27104000    -5.97469000   -63.20000000
  101.27029000    -5.97387000   -63.20000000
  101.26952000    -5.97304000   -63.10000000
  101.26876000    -5.97222000   -63.00000000
  101.26800000    -5.97141000   -62.40000000
  101.26724000    -5.97059000   -61.50000000
  101.26649000    -5.96978000   -61.90000000
  101.26574000    -5.96897000   -62.50000000
  101.26499000    -5.96815000   -61.60000000
  101.26424000    -5.96733000   -62.00000000
  101.26349000    -5.96650000   -62.30000000
  101.26273000    -5.96567000   -62.60000000
  101.26199000    -5.96484000   -62.00000000
  101.26124000    -5.96403000   -61.80000000
  101.26050000    -5.96321000   -61.50000000
  101.25975000    -5.96241000   -60.70000000
  101.25900000    -5.96160000   -61.60000000
  101.25826000    -5.96079000   -62.40000000
  101.25749000    -5.95998000   -62.60000000
  101.25673000    -5.95916000   -62.30000000
  101.25597000    -5.95835000   -62.40000000
  101.25520000    -5.95754000   -61.90000000
  101.25446000    -5.95673000   -60.90000000
  101.25371000    -5.95592000   -59.50000000
  101.25297000    -5.95512000   -60.90000000
  101.25222000    -5.95431000   -61.30000000
  101.25147000    -5.95349000   -61.90000000
  101.25071000    -5.95266000   -62.20000000
  101.24995000    -5.95183000   -62.00000000
  101.24918000    -5.95100000   -61.90000000
  101.24842000    -5.95017000   -61.10000000
  101.24766000    -5.94934000   -61.70000000
  101.24690000    -5.94851000   -61.00000000
  101.24614000    -5.94769000   -61.10000000
  101.24537000    -5.94688000   -61.80000000
  101.24461000    -5.94606000   -61.50000000
  101.24384000    -5.94524000   -61.20000000
  101.24307000    -5.94441000   -60.60000000
  101.24232000    -5.94359000   -60.60000000
  101.24156000    -5.94277000   -61.80000000
  101.24080000    -5.94194000   -61.20000000
  101.24004000    -5.94111000   -61.20000000
  101.23927000    -5.94028000   -62.00000000
  101.23849000    -5.93945000   -62.00000000
  101.23772000    -5.93860000   -62.80000000
  101.23695000    -5.93776000   -60.80000000
  101.23619000    -5.93692000   -61.50000000
  101.23543000    -5.93609000   -61.70000000
  101.23466000    -5.93526000   -61.00000000
  101.23391000    -5.93443000   -60.30000000
  101.23315000    -5.93360000   -59.60000000
  101.23239000    -5.93277000   -61.20000000
  101.23162000    -5.93193000   -61.20000000
  101.23086000    -5.93110000   -61.20000000
  101.23011000    -5.93027000   -60.30000000
  101.22936000    -5.92945000   -61.20000000
  101.22861000    -5.92864000   -61.90000000
  101.22787000    -5.92783000   -60.40000000
  101.22714000    -5.92702000   -59.80000000
  101.22640000    -5.92621000   -61.70000000
  101.22565000    -5.92540000   -62.40000000
  101.22490000    -5.92458000   -61.40000000
  101.22414000    -5.92375000   -60.80000000
  101.22339000    -5.92292000   -60.80000000
  101.22263000    -5.92210000   -61.00000000
  101.22188000    -5.92128000   -60.80000000
  101.22113000    -5.92046000   -60.70000000
  101.22038000    -5.91963000   -60.70000000
  101.21961000    -5.91880000   -60.60000000
  101.21886000    -5.91797000   -60.10000000
  101.21809000    -5.91714000   -60.30000000
  101.21734000    -5.91630000   -60.80000000
  101.21658000    -5.91548000   -61.10000000
  101.21584000    -5.91466000   -60.30000000
  101.21509000    -5.91385000   -59.40000000
  101.21436000    -5.91304000   -60.00000000
  101.21362000    -5.91223000   -61.40000000
  101.21287000    -5.91143000   -60.30000000
  101.21213000    -5.91062000   -59.40000000
  101.21139000    -5.90981000   -59.90000000
  101.21064000    -5.90901000   -60.70000000
  101.20988000    -5.90820000   -61.30000000
  101.20914000    -5.90738000   -59.60000000
  101.20838000    -5.90656000   -59.90000000
  101.20763000    -5.90573000   -60.60000000
  101.20686000    -5.90489000   -60.80000000
  101.20612000    -5.90407000   -60.30000000
  101.20536000    -5.90325000   -59.90000000
  101.20462000    -5.90243000   -59.30000000
  101.20387000    -5.90162000   -60.30000000
  101.20310000    -5.90081000   -60.50000000
  101.20234000    -5.89999000   -60.40000000
  101.20157000    -5.89916000   -60.70000000
  101.20080000    -5.89831000   -59.80000000
  101.20003000    -5.89746000   -60.40000000
  101.19926000    -5.89662000   -59.80000000
  101.19851000    -5.89579000   -59.80000000
  101.19776000    -5.89495000   -58.70000000
  101.19702000    -5.89413000   -59.30000000
  101.19627000    -5.89330000   -60.00000000
  101.19553000    -5.89248000   -59.90000000
  101.19479000    -5.89164000   -59.60000000
  101.19405000    -5.89081000   -60.00000000
  101.19330000    -5.88997000   -59.70000000
  101.19256000    -5.88914000   -59.60000000
  101.19182000    -5.88831000   -58.90000000
  101.19109000    -5.88748000   -58.70000000
  101.19035000    -5.88666000   -59.60000000
  101.18962000    -5.88585000   -59.50000000
  101.18888000    -5.88505000   -59.20000000
  101.18815000    -5.88424000   -58.70000000
  101.18742000    -5.88343000   -58.30000000
  101.18669000    -5.88262000   -59.00000000
  101.18595000    -5.88180000   -59.50000000
  101.18521000    -5.88097000   -59.50000000
  101.18447000    -5.88015000   -59.20000000
