   68.16340000     8.18730000   -42.10000000
   68.12300000     8.18840000   -43.30000000
   68.08250000     8.18950000   -45.30000000
   68.04210000     8.19050000   -46.50000000
   68.00160000     8.19160000   -45.50000000
   67.96120000     8.19270000   -45.50000000
   67.92070000     8.19370000   -42.30000000
   67.88030000     8.19480000   -41.30000000
   67.83980000     8.19590000   -40.30000000
   67.79940000     8.19690000   -38.10000000
   67.75890000     8.19800000   -38.30000000
   67.71850000     8.19910000   -37.10000000
   67.67800000     8.20020000   -36.10000000
   67.63760000     8.20120000   -37.30000000
   67.59710000     8.20230000   -37.30000000
   67.55670000     8.20340000   -37.30000000
   67.47580000     8.20550000   -35.30000000
   67.43530000     8.20660000   -34.10000000
   67.39490000     8.20770000   -34.30000000
   67.35440000     8.20870000   -35.30000000
   67.31400000     8.20980000   -35.30000000
   67.27350000     8.21090000   -35.30000000
   67.23310000     8.21190000   -35.30000000
   67.19260000     8.21300000   -36.50000000
   67.15220000     8.21410000   -37.50000000
   67.11170000     8.21510000   -37.50000000
   67.07130000     8.21620000   -39.80000000
   67.03080000     8.21730000   -39.80000000
   66.99040000     8.21840000   -40.80000000
   66.94550000     8.23320000   -41.50000000
   66.94960000     8.23640000   -50.00000000
   66.91620000     8.23770000   -53.00000000
   66.87390000     8.23890000   -52.00000000
   66.83170000     8.24020000   -48.80000000
   66.78940000     8.24150000   -47.80000000
   66.74720000     8.24270000   -47.80000000
   66.62040000     8.24650000   -45.80000000
   66.57820000     8.24780000   -45.80000000
   66.53590000     8.24900000   -43.70000000
   66.49370000     8.25030000   -43.70000000
   66.45140000     8.25160000   -43.70000000
   66.40910000     8.25280000   -48.00000000
   66.36690000     8.25410000   -54.50000000
   66.32460000     8.25530000   -54.50000000
   66.28240000     8.25660000   -54.50000000
   66.24010000     8.25790000   -55.50000000
   66.19790000     8.25910000   -56.60000000
   66.15560000     8.26040000   -54.50000000
   66.11340000     8.26160000   -52.50000000
   66.07110000     8.26290000   -49.30000000
   66.02890000     8.26420000   -50.50000000
   65.98660000     8.26540000   -52.50000000
   65.94440000     8.26670000   -49.50000000
   65.90210000     8.26800000   -48.50000000
   65.85990000     8.26920000   -44.30000000
   65.81760000     8.27050000   -33.60000000
   65.77530000     8.27170000   -29.40000000
   65.73310000     8.27300000   -25.30000000
   65.69080000     8.27430000   -23.10000000
   65.64860000     8.27550000   -27.40000000
   65.60630000     8.27680000   -27.40000000
   65.56410000     8.27810000   -38.10000000
   65.52180000     8.27930000   -44.50000000
   65.47960000     8.28060000   -50.80000000
   65.43730000     8.28180000   -52.00000000
   65.39510000     8.28310000   -54.00000000
   65.35280000     8.28440000   -56.20000000
   65.31060000     8.28560000   -52.00000000
   65.26830000     8.28690000   -51.00000000
   65.22600000     8.28810000   -49.00000000
   65.18380000     8.28940000   -49.00000000
   65.14150000     8.29070000   -46.80000000
   65.09930000     8.29190000   -45.80000000
   65.05700000     8.29320000   -47.00000000
   65.01480000     8.29450000   -49.00000000
   64.97250000     8.29570000   -50.10000000
   64.93030000     8.29700000   -48.00000000
   64.88800000     8.29820000   -51.30000000
   64.84580000     8.29950000   -52.30000000
   64.80350000     8.30080000   -53.50000000
   64.76130000     8.30200000   -53.50000000
   64.71900000     8.30330000   -57.80000000
   64.67680000     8.30450000   -61.00000000
   64.63450000     8.30580000   -58.80000000
   64.59220000     8.30710000   -54.60000000
   64.55000000     8.30830000   -49.50000000
   64.50790000     8.30790000   -49.10000000
   64.46570000     8.30740000   -45.00000000
   64.42360000     8.30700000   -42.80000000
   64.38150000     8.30650000   -40.60000000
   64.33940000     8.30610000   -38.50000000
   64.29730000     8.30560000   -40.60000000
   64.25510000     8.30520000   -37.50000000
   64.21300000     8.30470000   -36.50000000
   64.17090000     8.30420000   -33.30000000
   64.12880000     8.30380000   -31.10000000
   64.08670000     8.30330000   -25.80000000
   64.09820000     8.29460000   -25.60000000
   63.95350000     8.29050000   -40.50000000
   63.91370000     8.29020000   -40.50000000
   63.87380000     8.28990000   -46.80000000
   63.83390000     8.28960000   -45.80000000
   63.79410000     8.28920000   -40.50000000
   63.75420000     8.28890000   -40.50000000
   63.71430000     8.28860000   -38.30000000
   63.67450000     8.28830000   -36.30000000
   63.63460000     8.28800000   -29.90000000
   63.59470000     8.28770000   -29.80000000
   63.55490000     8.28740000   -37.30000000
   63.51500000     8.28710000   -42.50000000
   63.47520000     8.28680000   -40.50000000
   63.43530000     8.28640000   -40.50000000
   63.39540000     8.28610000   -37.30000000
   63.35560000     8.28580000   -38.30000000
   63.31570000     8.28550000   -36.10000000
   63.27580000     8.28520000   -39.30000000
   63.23600000     8.28490000   -40.30000000
   63.19610000     8.28460000   -39.30000000
   63.15630000     8.28430000   -42.50000000
   63.11640000     8.28400000   -45.60000000
   63.07650000     8.28360000   -42.50000000
   63.03930000     8.28340000   -40.30000000
   62.99830000     8.27420000   -37.50000000
   62.95990000     8.26500000   -36.30000000
   62.92150000     8.25590000   -37.00000000
   62.88310000     8.24670000   -43.10000000
   62.84470000     8.23760000   -46.10000000
   62.80630000     8.22840000   -48.00000000
   62.76790000     8.21930000   -40.30000000
   62.75240000     8.20000000   -41.00000000
   62.67960000     8.16110000   -20.10000000
   62.64530000     8.14340000   -19.60000000
   62.61100000     8.12580000   -30.80000000
   62.57670000     8.10810000   -36.80000000
   62.54250000     8.09040000   -41.50000000
   62.50820000     8.07270000   -47.50000000
   62.47390000     8.05500000   -45.00000000
   62.43960000     8.03740000   -39.10000000
   62.40530000     8.01970000   -37.80000000
   62.37110000     8.00200000   -40.50000000
   62.33680000     7.98430000   -44.30000000
   62.30250000     7.96670000   -39.50000000
   62.26820000     7.94900000   -32.80000000
   62.23390000     7.93130000   -34.50000000
   62.19970000     7.91360000   -28.80000000
   62.16540000     7.89600000   -31.40000000
   62.13110000     7.87830000   -24.80000000
   62.09680000     7.86060000   -20.00000000
   62.06250000     7.84290000   -13.30000000
   62.02830000     7.82530000    -9.70000000
   61.99400000     7.80760000   -13.40000000
   61.95970000     7.78990000   -23.60000000
   61.92540000     7.77220000   -20.00000000
   61.89110000     7.75450000    -7.00000000
   61.85690000     7.73690000   -17.00000000
   61.82170000     7.72160000   -29.30000000
   61.78630000     7.70700000   -37.30000000
   61.75100000     7.69240000   -35.00000000
   61.71560000     7.67770000   -38.80000000
   61.68020000     7.66310000   -38.50000000
   61.64490000     7.64850000   -16.90000000
   61.60950000     7.63380000   -20.80000000
   61.57410000     7.61920000   -22.60000000
   61.53880000     7.60460000   -27.50000000
   61.50340000     7.58990000   -31.40000000
   61.46800000     7.57530000   -14.20000000
   61.43270000     7.56060000    -9.70000000
   61.39730000     7.54600000    -6.10000000
   61.37370000     7.53630000   -14.40000000
   61.32110000     7.51820000   -40.50000000
   61.28090000     7.50480000   -43.30000000
   61.24080000     7.49140000   -44.00000000
   61.20060000     7.47800000   -40.50000000
   61.16040000     7.46460000   -41.30000000
   61.12020000     7.45120000   -43.00000000
   61.08010000     7.43780000   -35.30000000
   61.06240000     7.43760000   -23.90000000
   60.99360000     7.42500000   -24.00000000
   60.91690000     7.40000000   -39.80000000
   60.87860000     7.38750000   -39.50000000
   60.84020000     7.37500000   -37.10000000
   60.80190000     7.36250000   -43.10000000
   60.76360000     7.35000000   -33.30000000
   60.72520000     7.33750000   -34.10000000
   60.71240000     7.33330000   -34.00000000
   60.68690000     7.32500000    -9.60000000
   60.64850000     7.31250000    -4.00000000
   60.61020000     7.30000000    -6.90000000
   60.57180000     7.28750000    -3.50000000
   60.53350000     7.27500000     0.20000000
   60.49510000     7.26250000     2.50000000
   60.45680000     7.25000000     1.80000000
   60.41840000     7.23750000     2.00000000
   60.38010000     7.22500000    -4.20000000
   60.34170000     7.21250000    -7.10000000
   60.30340000     7.20000000    -7.80000000
   60.26500000     7.18750000   -20.10000000
   60.22670000     7.17500000   -15.70000000
   60.18830000     7.16250000   -11.20000000
   60.15000000     7.15000000    -0.40000000
   60.11190000     7.13840000    -8.10000000
   60.07390000     7.12680000   -31.00000000
   60.03590000     7.11520000   -30.80000000
   59.99780000     7.10360000   -28.40000000
   59.95980000     7.09200000   -26.00000000
   59.92170000     7.08040000   -19.40000000
   59.88370000     7.06880000   -17.10000000
   59.84560000     7.05720000   -18.90000000
   59.80760000     7.04570000   -14.40000000
   59.76960000     7.03410000   -14.30000000
   59.73150000     7.02250000    -9.80000000
   59.69350000     7.01090000     3.30000000
   59.65540000     6.99930000     7.80000000
   59.61740000     6.98770000     1.60000000
   59.57930000     6.97610000    -4.60000000
   59.54130000     6.96450000    -6.40000000
   59.50330000     6.95290000     0.40000000
   59.49060000     6.94900000     4.70000000
   59.46520000     6.94130000    -2.80000000
   59.42720000     6.92970000   -17.30000000
   59.38910000     6.91810000   -32.80000000
   59.35110000     6.90650000   -32.60000000
   59.31300000     6.89490000   -36.50000000
   59.27750000     6.88410000   -38.50000000
   59.33210000     6.70120000    -4.40000000
   59.37430000     6.70720000    -8.20000000
   59.41540000     6.71440000     2.50000000
   59.45640000     6.72160000    13.90000000
   59.49740000     6.72870000    20.00000000
   59.53840000     6.73590000    10.40000000
   59.57940000     6.74310000     1.80000000
   59.62040000     6.75030000    -0.60000000
   59.66150000     6.75750000     3.60000000
   59.70250000     6.76470000    -6.20000000
   59.74350000     6.77190000   -17.90000000
   59.78450000     6.77910000   -22.30000000
   59.82550000     6.78620000   -17.10000000
   59.86650000     6.79340000   -20.40000000
   59.90750000     6.80060000   -24.80000000
   59.94860000     6.80780000   -30.30000000
   59.98960000     6.81500000   -30.40000000
   60.03060000     6.82220000   -30.60000000
   60.07160000     6.82940000   -34.00000000
   60.11260000     6.83660000   -46.80000000
   60.15360000     6.84370000   -59.60000000
   60.20120000     6.85240000   -57.10000000
   60.28160000     6.88140000   -20.40000000
   60.32500000     6.89630000   -10.30000000
   60.36830000     6.91120000    -2.00000000
   60.41160000     6.92610000    -4.50000000
   60.45490000     6.94090000    -9.10000000
   60.49820000     6.95580000   -13.60000000
   60.54160000     6.97070000   -19.30000000
   60.58490000     6.98560000   -21.60000000
   60.62820000     7.00050000   -20.90000000
   60.67150000     7.01530000   -17.00000000
   60.71480000     7.03020000   -18.30000000
   60.75820000     7.04510000   -21.80000000
   60.80150000     7.06000000   -28.50000000
   60.84480000     7.07480000   -29.90000000
   60.88810000     7.08970000   -18.60000000
   60.91870000     7.05500000    12.40000000
   60.94060000     6.99980000    21.00000000
   60.95690000     6.95620000    10.40000000
   60.91620000     6.91380000   -17.10000000
   60.88010000     6.90230000   -15.90000000
   60.84410000     6.89080000    -5.10000000
   60.80800000     6.87920000    -2.60000000
   60.77190000     6.86770000    -8.70000000
   60.71670000     6.85680000    -8.00000000
   60.67830000     6.85640000   -26.30000000
   60.63990000     6.84610000   -25.10000000
   60.60160000     6.83580000   -24.80000000
   60.56320000     6.82560000   -20.40000000
   60.52490000     6.81530000   -15.90000000
   60.48650000     6.80500000    -7.40000000
   60.45070000     6.79540000    -0.70000000
   60.37150000     6.77420000     3.50000000
   60.33310000     6.76390000     3.70000000
   60.29470000     6.75370000    -5.70000000
   60.25640000     6.74340000   -18.10000000
   60.21800000     6.73310000   -29.50000000
   60.17970000     6.72280000   -54.60000000
   60.14130000     6.71260000   -54.50000000
   60.10300000     6.70230000   -47.80000000
   60.06460000     6.69200000   -26.50000000
   60.02630000     6.68170000   -16.80000000
   59.98790000     6.67150000   -17.60000000
   59.94950000     6.66120000   -32.30000000
   59.91120000     6.65090000   -25.80000000
   59.87280000     6.64060000   -19.10000000
   59.83450000     6.63040000   -12.70000000
   59.78460000     6.61670000    -5.20000000
   59.67670000     6.58080000    11.90000000
   59.63610000     6.56730000     8.90000000
   59.59550000     6.55380000     7.20000000
   59.55480000     6.54040000    12.70000000
   59.51420000     6.52690000     9.90000000
   59.47360000     6.51350000    15.40000000
   59.43300000     6.50000000    11.40000000
   59.39240000     6.48650000     7.50000000
   59.35180000     6.47310000     4.60000000
   59.31110000     6.45960000   -11.20000000
   59.27050000     6.44620000   -28.80000000
   59.22990000     6.43270000   -40.10000000
   59.18930000     6.41920000   -54.60000000
   59.14870000     6.40580000   -60.80000000
   59.10810000     6.39230000   -59.30000000
   59.06750000     6.37880000   -47.50000000
   59.02680000     6.36540000   -57.80000000
   58.98620000     6.35190000   -11.10000000
   58.94560000     6.33850000    -6.60000000
   58.90500000     6.32500000    -2.00000000
   58.86380000     6.31810000     3.30000000
   58.82260000     6.31120000    -0.90000000
   58.78140000     6.30430000    -3.80000000
   58.74020000     6.29740000   -10.10000000
   58.69890000     6.29050000    -6.80000000
   58.65770000     6.28360000     1.90000000
   58.61650000     6.27670000     2.00000000
   58.57530000     6.26980000     6.50000000
   58.56160000     6.26750000     6.50000000
   58.53410000     6.26290000   -14.70000000
   58.49290000     6.25600000   -27.30000000
   58.39670000     6.23990000   -53.30000000
   58.36930000     6.23530000   -50.00000000
   58.32800000     6.22840000   -45.60000000
   58.28680000     6.22150000   -36.00000000
   58.24560000     6.21460000   -30.60000000
   58.20440000     6.20770000   -42.10000000
   58.16320000     6.20080000   -42.00000000
   58.12200000     6.19390000   -36.50000000
   58.08080000     6.18700000   -30.10000000
   58.03960000     6.18010000   -17.30000000
   57.99840000     6.17320000   -13.90000000
   57.95710000     6.16630000   -10.70000000
   57.91590000     6.15940000   -11.70000000
   57.84520000     6.14990000   -16.60000000
   57.83730000     6.15260000    -9.90000000
   57.77080000     6.14690000   -19.90000000
   57.72640000     6.14080000   -24.00000000
   57.68200000     6.13480000   -16.50000000
   57.63750000     6.12870000   -11.20000000
   57.59310000     6.12260000    -2.50000000
   57.54870000     6.11660000    -1.30000000
   57.45990000     6.10440000   -35.30000000
   57.41550000     6.09840000   -40.50000000
   57.37110000     6.09230000   -36.10000000
   57.32670000     6.08620000   -40.30000000
   57.28220000     6.08010000   -44.30000000
   57.23780000     6.07410000   -46.30000000
   57.19340000     6.06800000   -46.30000000
   57.14900000     6.06190000   -42.00000000
   57.10460000     6.05590000   -37.50000000
   57.06020000     6.04980000   -34.30000000
   57.01580000     6.04370000   -27.80000000
   56.97140000     6.03770000   -29.80000000
   56.92690000     6.03160000   -30.80000000
   56.88250000     6.02550000   -37.00000000
   56.83810000     6.01950000   -44.30000000
   56.79370000     6.01340000   -51.50000000
   56.74930000     6.00730000   -51.50000000
   56.70490000     6.00120000   -48.10000000
   56.66050000     5.99520000   -40.60000000
   56.61610000     5.98910000   -37.30000000
   56.57160000     5.98300000   -21.40000000
   56.52720000     5.97700000     2.00000000
   56.48280000     5.97090000    19.00000000
   56.43840000     5.96480000    23.30000000
   56.39400000     5.95880000    28.80000000
   56.34960000     5.95270000    28.80000000
   56.30520000     5.94660000    24.80000000
   56.29040000     5.94460000    23.40000000
   56.26110000     5.94040000    18.30000000
   56.21710000     5.93420000    17.30000000
   56.17310000     5.92790000     7.90000000
   56.12920000     5.92170000     0.60000000
   56.08520000     5.91540000    -0.50000000
   56.04120000     5.90920000    -1.30000000
   55.99730000     5.90290000    -3.30000000
   55.95330000     5.89670000     0.10000000
   55.90930000     5.89040000     2.30000000
   55.86530000     5.88420000    -3.00000000
   55.82140000     5.87790000    -3.00000000
   55.77740000     5.87170000    -6.00000000
   55.73340000     5.86540000   -10.10000000
   55.68950000     5.85920000   -12.10000000
   55.64550000     5.85290000   -20.40000000
   55.60150000     5.84670000   -28.80000000
   55.55750000     5.84040000   -39.10000000
   55.51360000     5.83420000   -38.00000000
   55.46960000     5.82790000   -33.60000000
   55.42560000     5.82170000   -21.90000000
   55.38170000     5.81540000   -13.40000000
   55.33770000     5.80920000   -17.50000000
   55.29370000     5.80290000   -19.50000000
   55.24970000     5.79670000   -16.30000000
   55.20580000     5.79040000   -16.10000000
   55.16180000     5.78420000   -13.90000000
   55.11780000     5.77790000   -13.80000000
   55.07390000     5.77170000   -17.80000000
   55.02990000     5.76540000   -23.00000000
   54.98590000     5.75920000   -23.90000000
   54.94920000     5.75760000   -32.50000000
   54.94300000     5.75640000   -32.50000000
   54.93670000     5.75530000   -35.60000000
   54.89360000     5.74970000   -33.50000000
   54.84930000     5.74400000   -34.50000000
   54.80500000     5.73830000   -37.50000000
   54.76070000     5.73260000   -34.30000000
   54.71640000     5.72690000   -26.80000000
   54.67210000     5.72120000   -13.10000000
   54.62780000     5.71550000   -10.80000000
   54.58350000     5.70980000    -9.70000000
   54.53920000     5.70420000   -11.70000000
   54.49490000     5.69850000   -18.90000000
   54.40630000     5.68710000   -25.00000000
   54.36190000     5.68140000   -22.80000000
   54.31760000     5.67570000   -23.80000000
   54.27330000     5.67000000   -22.60000000
   54.23400000     5.65670000   -10.40000000
   54.19480000     5.64340000    -5.90000000
   54.15550000     5.63010000     2.80000000
   54.11620000     5.61680000    23.10000000
   54.03760000     5.59010000    45.50000000
   53.99830000     5.57680000    60.50000000
   53.95900000     5.56350000    71.30000000
   53.91980000     5.55020000    57.80000000
   53.88050000     5.53690000    42.10000000
   53.84120000     5.52360000    22.30000000
   53.80190000     5.51030000     0.40000000
   53.76260000     5.49690000   -16.40000000
   53.72330000     5.48360000   -42.50000000
   53.68400000     5.47030000   -62.50000000
   53.56620000     5.43040000   -82.50000000
   53.52690000     5.41710000   -97.10000000
   53.42240000     5.38190000   -80.30000000
   53.39220000     5.37190000   -82.30000000
   53.36190000     5.36190000   -77.90000000
   53.33170000     5.35180000   -79.80000000
   53.30150000     5.34180000   -83.90000000
   53.27130000     5.33180000   -79.50000000
   53.24110000     5.32170000   -69.80000000
   53.21090000     5.31170000   -70.70000000
   53.18070000     5.30160000   -62.00000000
   53.09010000     5.27150000   -61.50000000
   53.05990000     5.26150000   -61.30000000
   53.02970000     5.25150000   -57.00000000
   52.99950000     5.24140000   -52.50000000
   52.96930000     5.23140000   -54.50000000
   52.93910000     5.22140000   -58.50000000
   52.90590000     5.20640000   -68.60000000
   52.87000000     5.18720000   -64.00000000
   52.83410000     5.16790000   -57.30000000
   52.79820000     5.14870000   -55.00000000
   52.76240000     5.12950000   -52.50000000
   52.72650000     5.11030000   -52.30000000
   52.69060000     5.09100000   -50.80000000
   52.65480000     5.07180000   -49.50000000
   52.61890000     5.05260000   -52.30000000
   52.58300000     5.03330000   -58.30000000
   52.54710000     5.01410000   -51.80000000
   52.51130000     4.99490000   -47.30000000
   52.47540000     4.97560000   -48.00000000
   52.43950000     4.95640000   -51.80000000
   52.40360000     4.93720000   -53.80000000
   52.36780000     4.91790000   -53.50000000
   52.33190000     4.89870000   -51.00000000
   52.29600000     4.87950000   -52.80000000
   52.26020000     4.86030000   -50.50000000
   52.22430000     4.84100000   -47.00000000
   52.18840000     4.82180000   -47.80000000
   52.15250000     4.80260000   -49.50000000
   51.99730000     4.62790000   -51.80000000
   51.95570000     4.62160000   -50.50000000
   51.91420000     4.61530000   -49.50000000
   51.87260000     4.60900000   -52.50000000
   51.83100000     4.60260000   -50.30000000
   51.78940000     4.59630000   -52.30000000
   51.74790000     4.59000000   -53.30000000
   51.70630000     4.58370000   -52.10000000
   51.66470000     4.57740000   -52.00000000
   51.62310000     4.57110000   -52.00000000
   51.58160000     4.56480000   -53.00000000
   51.54000000     4.55850000   -52.80000000
   51.49840000     4.55220000   -53.80000000
   51.45680000     4.54590000   -56.00000000
   51.41530000     4.53960000   -61.10000000
   51.37370000     4.53330000   -60.00000000
   51.33210000     4.52700000   -58.80000000
   51.29060000     4.52070000   -55.50000000
   51.24900000     4.51440000   -53.30000000
   51.20740000     4.50810000   -49.00000000
   51.16580000     4.50180000   -44.50000000
   51.12430000     4.49540000   -40.10000000
   51.08270000     4.48910000   -38.00000000
   51.04110000     4.48280000   -24.90000000
   50.99950000     4.47650000   -12.10000000
   50.95800000     4.47020000    -3.30000000
   50.91640000     4.46390000   -16.10000000
   50.87480000     4.45760000   -24.60000000
   50.83320000     4.45130000   -36.30000000
   50.79440000     4.44540000   -47.00000000
   50.80970000     4.40720000   -56.60000000
   50.82780000     4.36940000   -64.80000000
   50.84590000     4.33160000   -64.30000000
   50.90010000     4.21820000   -63.80000000
   50.93630000     4.14250000   -62.80000000
   50.97240000     4.06690000   -61.80000000
   51.00860000     3.99130000   -60.80000000
   51.04470000     3.91570000   -67.50000000
   51.06280000     3.87790000   -71.30000000
   51.08090000     3.84010000   -74.10000000
   51.09900000     3.80230000   -74.70000000
   51.11700000     3.76450000   -74.30000000
   51.13510000     3.72670000   -80.30000000
   51.15320000     3.68890000   -84.10000000
   51.17130000     3.65110000   -86.90000000
   51.18930000     3.61330000   -87.50000000
   51.20740000     3.57550000   -87.10000000
   51.22550000     3.53760000   -86.70000000
   51.24360000     3.49980000   -86.30000000
   51.26160000     3.46200000   -79.40000000
   51.27970000     3.42420000   -79.00000000
   51.29490000     3.39400000   -82.90000000
   51.30940000     3.36560000   -78.30000000
   51.32390000     3.33720000   -74.80000000
   51.33840000     3.30880000   -71.30000000
   51.35290000     3.28040000   -68.90000000
   51.36740000     3.25210000   -64.30000000
   51.38190000     3.22370000   -60.80000000
   51.39640000     3.19530000   -59.30000000
   51.41090000     3.16690000   -59.00000000
   51.42540000     3.13850000   -61.00000000
   51.43990000     3.11010000   -61.80000000
   51.45430000     3.08180000   -61.50000000
   51.46880000     3.05340000   -58.00000000
   51.47140000     2.99720000   -41.50000000
   51.49910000     2.88520000   -29.50000000
   51.51650000     2.85020000   -27.10000000
   51.53400000     2.81530000   -20.30000000
   51.55150000     2.78040000   -20.00000000
   51.56890000     2.74540000   -15.40000000
   51.58640000     2.71050000   -15.20000000
   51.60390000     2.67560000   -14.90000000
   51.62130000     2.64060000   -16.80000000
   51.63880000     2.60570000   -21.80000000
   51.65630000     2.57080000   -25.80000000
   51.67370000     2.53580000   -31.90000000
   51.69120000     2.50090000   -39.30000000
   51.70870000     2.46600000   -43.30000000
   51.72610000     2.43100000   -47.30000000
   51.74360000     2.39610000   -46.00000000
   51.76110000     2.36120000   -48.80000000
   51.77850000     2.32630000   -48.60000000
   51.79600000     2.29130000   -49.50000000
   51.81350000     2.25640000   -46.00000000
   51.83090000     2.22150000   -44.60000000
   51.84840000     2.18650000   -45.50000000
   51.86590000     2.15160000   -45.30000000
   51.92830000     2.06090000   -37.80000000
   51.95080000     2.03290000   -38.60000000
   51.97330000     2.00500000   -37.30000000
   51.99570000     1.97710000   -35.00000000
   52.01820000     1.94920000   -35.00000000
   52.04070000     1.92130000   -35.80000000
   52.06320000     1.89340000   -36.80000000
   52.08570000     1.86550000   -37.60000000
   52.10810000     1.83760000   -38.50000000
   52.13060000     1.80970000   -38.30000000
   52.15310000     1.78180000   -38.30000000
   52.17560000     1.75390000   -40.30000000
   52.19810000     1.72600000   -42.30000000
   52.22050000     1.69810000   -44.10000000
   52.24300000     1.67020000   -44.00000000
   52.26550000     1.64220000   -44.00000000
   52.28800000     1.61430000   -41.60000000
   52.31050000     1.58640000   -39.30000000
   52.33290000     1.55850000   -41.30000000
   52.35540000     1.53060000   -37.00000000
   52.37790000     1.50270000   -34.60000000
   52.40040000     1.47480000   -41.00000000
   52.42290000     1.44690000   -46.10000000
   52.44530000     1.41900000   -46.00000000
   52.46780000     1.39110000   -46.00000000
   52.49030000     1.36320000   -45.80000000
   52.51280000     1.33530000   -45.60000000
   52.53530000     1.30740000   -44.50000000
   52.55780000     1.27950000   -47.60000000
   52.58020000     1.25160000   -47.50000000
   52.60270000     1.22360000   -47.30000000
   52.62520000     1.19570000   -48.30000000
   52.64770000     1.16780000   -44.00000000
   52.67020000     1.13990000   -41.80000000
   52.69260000     1.11200000   -39.50000000
   52.71510000     1.08410000   -39.30000000
   52.73760000     1.05620000   -32.80000000
   52.76010000     1.02830000   -30.60000000
   52.78260000     1.00040000   -24.00000000
   52.80500000     0.97250000   -23.90000000
   52.82750000     0.94460000   -26.00000000
   52.85000000     0.91670000   -28.10000000
   52.86980000     0.88280000   -34.80000000
   52.88970000     0.84900000   -37.00000000
   52.90950000     0.81510000   -36.80000000
   52.92940000     0.78130000   -36.80000000
   52.94920000     0.74740000   -36.60000000
   52.96900000     0.71360000   -34.50000000
   52.98890000     0.67970000   -33.30000000
   53.00870000     0.64590000   -33.30000000
   53.02860000     0.61200000   -32.10000000
   53.04840000     0.57820000   -28.80000000
   53.06830000     0.54430000   -25.50000000
   53.08810000     0.51050000   -21.30000000
   53.10790000     0.47660000   -23.30000000
   53.12780000     0.44280000   -25.30000000
   53.14760000     0.40890000   -27.40000000
   53.16750000     0.37510000   -29.50000000
   53.18730000     0.34120000   -27.40000000
   53.20710000     0.30740000   -26.30000000
   53.22700000     0.27350000   -26.30000000
   53.24680000     0.23970000   -27.30000000
   53.26670000     0.20580000   -26.30000000
   53.28650000     0.17200000   -27.30000000
   53.30630000     0.13810000   -26.10000000
   53.32620000     0.10430000   -25.10000000
   53.34600000     0.07040000   -24.00000000
   53.36590000     0.03660000   -25.00000000
   53.44520000    -0.09880000   -28.30000000
   53.46510000    -0.13270000   -26.10000000
   53.48490000    -0.16650000   -24.00000000
   53.50480000    -0.20040000   -20.80000000
   53.52460000    -0.23420000   -17.60000000
   53.54440000    -0.26810000   -17.60000000
   53.56430000    -0.30190000   -18.70000000
   53.58410000    -0.33580000   -18.80000000
   53.60400000    -0.36960000   -16.80000000
   53.62380000    -0.40350000   -18.90000000
   53.64360000    -0.43730000   -16.80000000
   53.66350000    -0.47120000   -18.90000000
   53.69390000    -0.50560000   -21.30000000
   53.71370000    -0.54740000   -21.30000000
   53.73350000    -0.58920000   -23.50000000
   53.75330000    -0.63100000   -24.60000000
   53.77320000    -0.67280000   -25.80000000
   53.79300000    -0.71460000   -25.90000000
   53.81280000    -0.75640000   -26.00000000
   53.83260000    -0.79820000   -25.00000000
   53.85240000    -0.84000000   -25.10000000
   53.87220000    -0.88180000   -24.30000000
   53.89200000    -0.92360000   -22.10000000
   53.91180000    -0.96540000   -22.30000000
   53.93170000    -1.00720000   -21.30000000
   53.95150000    -1.04900000   -21.50000000
   53.97130000    -1.09080000   -22.80000000
   53.99110000    -1.13260000   -21.80000000
   54.01090000    -1.17440000   -20.80000000
   54.03070000    -1.21620000   -21.00000000
   54.05050000    -1.25790000   -17.90000000
   54.07040000    -1.29970000   -19.30000000
   54.09020000    -1.34150000   -17.30000000
   54.11000000    -1.38330000   -17.40000000
   54.13050000    -1.42390000   -16.30000000
   54.15100000    -1.46450000   -16.50000000
   54.17150000    -1.50510000   -14.60000000
   54.19200000    -1.54570000   -14.80000000
   54.21260000    -1.58630000   -14.90000000
   54.23310000    -1.62690000   -15.20000000
   54.25360000    -1.66750000   -15.40000000
   54.27410000    -1.70810000   -15.70000000
   54.29460000    -1.74870000   -15.90000000
   54.31510000    -1.78930000   -16.00000000
   54.33560000    -1.82990000   -16.30000000
   54.35610000    -1.87050000   -16.50000000
   54.37670000    -1.91110000   -16.80000000
   54.39720000    -1.95170000   -17.00000000
   54.41770000    -1.99230000   -19.40000000
   54.43820000    -2.03290000   -19.60000000
   54.45870000    -2.07350000   -22.00000000
   54.47920000    -2.11410000   -26.60000000
   54.49970000    -2.15470000   -26.90000000
   54.52030000    -2.19530000   -25.00000000
   54.54080000    -2.23590000   -27.40000000
   54.56130000    -2.27650000   -26.60000000
   54.58180000    -2.31710000   -23.80000000
   54.60230000    -2.35770000   -21.90000000
   54.62280000    -2.39830000   -20.00000000
   54.64330000    -2.43890000   -23.50000000
   54.66380000    -2.47950000   -27.10000000
   54.68440000    -2.52010000   -28.50000000
   54.70490000    -2.56070000   -30.90000000
   54.72540000    -2.60130000   -28.00000000
   54.78130000    -2.75270000   -24.50000000
   54.80330000    -2.79590000   -18.50000000
   54.82530000    -2.83910000   -17.80000000
   54.84730000    -2.88230000   -27.80000000
   54.86940000    -2.92550000   -40.00000000
   54.89140000    -2.96860000   -41.50000000
   54.91340000    -3.01180000   -16.10000000
   54.93540000    -3.05500000     3.80000000
   54.95740000    -3.09820000     3.50000000
   54.97940000    -3.14140000    10.60000000
   55.00150000    -3.18450000   -11.40000000
   55.02350000    -3.22770000   -38.60000000
   55.04550000    -3.27090000   -44.50000000
   55.06750000    -3.31410000   -40.60000000
   55.08950000    -3.35730000   -19.60000000
   55.11150000    -3.40050000   -42.60000000
   55.13360000    -3.44360000   -59.10000000
   55.15560000    -3.48680000   -59.60000000
   55.17760000    -3.53000000   -51.50000000
   55.19960000    -3.57320000   -33.80000000
   55.22160000    -3.61640000    -5.30000000
   55.24370000    -3.65950000    28.60000000
   55.16890000    -3.64120000    27.60000000
   55.08000000    -3.64010000     9.40000000
   55.03550000    -3.63960000    -2.50000000
   54.99110000    -3.63910000    -8.90000000
   54.94660000    -3.63860000   -15.40000000
   54.90220000    -3.63810000   -17.40000000
   54.85770000    -3.63760000   -16.30000000
   54.81330000    -3.63710000   -12.10000000
   54.76880000    -3.63660000    -5.70000000
   54.72440000    -3.63610000    -9.90000000
   54.67990000    -3.63560000    -1.30000000
   54.63550000    -3.63510000    -4.60000000
   54.59100000    -3.63460000     2.00000000
   54.54660000    -3.63410000     4.20000000
   54.50210000    -3.63360000    -8.90000000
   54.45770000    -3.63310000    -6.70000000
   54.41320000    -3.63250000    -6.70000000
   54.36880000    -3.63200000   -33.50000000
   54.32430000    -3.63150000   -72.10000000
   54.27990000    -3.63100000   -85.00000000
   54.23540000    -3.63050000   -78.60000000
   54.19100000    -3.63000000   -63.50000000
   54.14650000    -3.62950000   -46.30000000
   54.10210000    -3.62900000   -32.30000000
   54.05770000    -3.62850000     3.10000000
   54.01320000    -3.62800000    44.00000000
   53.98360000    -3.62770000    45.00000000
   53.96880000    -3.62750000    31.00000000
   53.92430000    -3.62700000     5.40000000
   53.87990000    -3.62650000   -20.50000000
   53.83540000    -3.62600000   -23.80000000
   53.79100000    -3.62550000   -23.80000000
   53.74650000    -3.62490000   -23.80000000
   53.70210000    -3.62440000   -14.10000000
   53.65760000    -3.62390000    -3.30000000
   53.61320000    -3.62340000   -17.30000000
   53.56870000    -3.62290000   -35.50000000
   53.52430000    -3.62240000   -38.80000000
   53.47980000    -3.62190000   -35.50000000
   53.43540000    -3.62140000   -12.90000000
   53.39090000    -3.62090000     4.40000000
   53.34650000    -3.62040000    34.30000000
   53.32280000    -3.62010000    40.80000000
   53.30200000    -3.61990000    17.30000000
   53.25760000    -3.61940000   -20.40000000
   53.21310000    -3.61890000   -21.50000000
   53.16870000    -3.61840000   -21.50000000
   53.12420000    -3.61790000   -23.60000000
   53.07980000    -3.61730000   -27.90000000
   53.03530000    -3.61680000   -22.50000000
   52.99090000    -3.61630000   -12.90000000
   52.94640000    -3.61580000    -6.50000000
   52.90200000    -3.61530000    -2.10000000
   52.85750000    -3.61480000    -3.30000000
   52.81310000    -3.61430000    -6.50000000
   52.76860000    -3.61380000   -17.10000000
   52.72420000    -3.61330000   -30.00000000
   52.67970000    -3.61280000   -34.30000000
   52.63530000    -3.61230000   -27.80000000
   52.59080000    -3.61180000   -27.80000000
   52.54640000    -3.61130000   -34.30000000
   52.50190000    -3.61080000   -34.30000000
   52.45750000    -3.61030000   -30.00000000
   52.41300000    -3.60980000   -23.50000000
   52.36860000    -3.60920000   -21.40000000
   52.32410000    -3.60870000   -18.10000000
   52.27970000    -3.60820000   -18.10000000
   52.23520000    -3.60770000   -18.10000000
   52.19080000    -3.60720000   -17.00000000
   52.14630000    -3.60670000   -17.00000000
   52.10190000    -3.60620000   -19.30000000
   52.05740000    -3.60570000   -22.40000000
   52.01300000    -3.60520000   -23.50000000
   51.96850000    -3.60470000   -27.80000000
   51.92410000    -3.60420000   -22.40000000
   51.83700000    -3.59290000   -23.10000000
   51.74290000    -3.57440000   -17.50000000
   51.69860000    -3.57300000   -13.20000000
   51.65430000    -3.57160000   -12.20000000
   51.61000000    -3.57020000    -9.90000000
   51.56580000    -3.56880000    -6.80000000
   51.52150000    -3.56740000    -5.70000000
   51.47720000    -3.56600000    -1.30000000
   51.43290000    -3.56470000     0.90000000
   51.38870000    -3.56330000     2.00000000
   51.34440000    -3.56190000     0.90000000
   51.30010000    -3.56050000     0.90000000
   51.16730000    -3.55630000   -10.90000000
   51.12300000    -3.55500000   -10.90000000
   51.07870000    -3.55360000    -9.80000000
   51.03440000    -3.55220000   -12.90000000
   50.99020000    -3.55080000   -16.10000000
   50.94590000    -3.54940000   -16.10000000
   50.90160000    -3.54800000   -20.40000000
   50.85730000    -3.54660000   -16.10000000
   50.81300000    -3.54530000   -12.90000000
   50.76880000    -3.54390000    -3.30000000
   50.72450000    -3.54250000    -1.00000000
   50.68020000    -3.54110000    -1.00000000
   50.63590000    -3.53970000    -5.40000000
   50.59170000    -3.53830000    -6.40000000
   50.54740000    -3.53690000    -5.30000000
   50.50310000    -3.53560000    -5.30000000
   50.45880000    -3.53420000    -5.30000000
   50.41460000    -3.53280000   -10.70000000
   50.37030000    -3.53140000   -11.70000000
   50.32600000    -3.53000000    -9.40000000
   50.28170000    -3.52860000   -12.80000000
   50.23740000    -3.52720000   -13.80000000
   50.19320000    -3.52590000   -15.90000000
   50.14890000    -3.52450000   -15.90000000
   50.10460000    -3.52310000   -15.90000000
   50.06030000    -3.52170000   -14.80000000
   50.01610000    -3.52030000   -14.80000000
   49.97180000    -3.51890000   -13.70000000
   49.92750000    -3.51760000   -15.80000000
   49.88320000    -3.51620000   -17.90000000
   49.83900000    -3.51480000   -17.90000000
   49.79470000    -3.51340000   -17.80000000
   49.75040000    -3.51200000   -16.80000000
   49.70610000    -3.51060000   -18.90000000
   49.66180000    -3.50920000   -18.90000000
   49.61760000    -3.50790000   -22.10000000
   49.57330000    -3.50650000   -22.10000000
   49.52900000    -3.50510000   -22.00000000
   49.48470000    -3.50370000   -24.30000000
   49.44050000    -3.50230000   -24.30000000
   49.39620000    -3.50090000   -24.10000000
   49.35210000    -3.49860000   -22.80000000
   49.30860000    -3.49430000   -22.80000000
   49.26510000    -3.49000000   -22.80000000
   49.22150000    -3.48580000   -22.80000000
   49.17800000    -3.48150000   -24.80000000
   49.13450000    -3.47720000   -26.90000000
   49.09090000    -3.47300000   -27.90000000
   49.04740000    -3.46870000   -27.80000000
   49.00390000    -3.46440000   -27.80000000
   48.96030000    -3.46020000   -25.60000000
   48.91680000    -3.45590000   -28.80000000
   48.87320000    -3.45160000   -28.80000000
   48.82970000    -3.44740000   -29.80000000
   48.75570000    -3.38020000   -28.80000000
   48.65250000    -3.34690000   -20.50000000
   48.60820000    -3.34170000   -15.20000000
   48.56380000    -3.33650000   -19.30000000
   48.51950000    -3.33130000   -30.00000000
   48.47520000    -3.32610000   -38.50000000
   48.43090000    -3.32090000   -46.00000000
   48.38650000    -3.31570000   -48.10000000
   48.34220000    -3.31050000   -43.70000000
   48.29790000    -3.30530000   -39.50000000
   48.25350000    -3.30010000   -36.10000000
   48.20920000    -3.29490000   -30.80000000
   48.16490000    -3.28970000   -35.00000000
   48.12060000    -3.28450000   -32.80000000
   48.07620000    -3.27930000   -32.80000000
   48.03190000    -3.27410000   -32.60000000
   47.98760000    -3.26890000   -33.60000000
   47.94330000    -3.26370000   -38.00000000
   47.89890000    -3.25850000   -46.50000000
   47.85460000    -3.25330000   -54.00000000
   47.81030000    -3.24810000   -56.00000000
   47.76600000    -3.24290000   -51.60000000
   47.72160000    -3.23770000   -40.80000000
   47.67730000    -3.23250000   -23.60000000
   47.63300000    -3.22730000   -12.90000000
   47.58870000    -3.22210000    -4.30000000
   47.54430000    -3.21690000    -2.00000000
   47.50000000    -3.21170000    -3.00000000
   47.45760000    -3.21160000     1.50000000
   47.41520000    -3.21150000    -1.80000000
   47.33050000    -3.21130000   -11.40000000
   47.28810000    -3.21120000   -13.60000000
   47.24570000    -3.21120000   -12.40000000
   47.20330000    -3.21110000    -9.30000000
   47.16090000    -3.21100000   -10.30000000
   47.11850000    -3.21090000   -11.40000000
   47.07620000    -3.21080000   -17.80000000
   47.03380000    -3.21070000   -21.00000000
   46.99140000    -3.21060000   -28.50000000
   46.94900000    -3.21050000   -31.80000000
   46.90660000    -3.21050000   -30.60000000
   46.86420000    -3.21040000   -30.60000000
   46.82190000    -3.21030000   -30.60000000
   46.77950000    -3.21020000   -32.80000000
   46.73710000    -3.21010000   -33.80000000
   46.69470000    -3.21000000   -33.80000000
   46.65230000    -3.20990000   -33.80000000
   46.60990000    -3.20990000   -32.80000000
   46.56760000    -3.20980000   -32.80000000
   46.52520000    -3.20970000   -35.00000000
   46.48280000    -3.20960000   -35.00000000
   46.44040000    -3.20950000   -35.00000000
   46.39800000    -3.20940000   -32.80000000
   46.35560000    -3.20930000   -32.80000000
   46.31330000    -3.20930000   -32.80000000
   46.27090000    -3.20920000   -32.80000000
   46.22850000    -3.20910000   -32.80000000
   46.18610000    -3.20900000   -33.80000000
   45.81980000    -3.16700000   -49.50000000
   45.76010000    -3.17200000   -49.50000000
   45.71710000    -3.18350000   -47.50000000
   45.67410000    -3.19490000   -44.50000000
   45.63120000    -3.20630000   -44.50000000
   45.58820000    -3.21770000   -46.80000000
   45.54520000    -3.22920000   -44.80000000
   45.50220000    -3.24060000   -46.00000000
   45.45930000    -3.25200000   -47.10000000
   45.41630000    -3.26340000   -45.10000000
   45.37330000    -3.27480000   -45.30000000
   45.28740000    -3.29770000   -47.60000000
   45.24440000    -3.30910000   -49.80000000
   45.20140000    -3.32050000   -50.00000000
   45.15850000    -3.33200000   -49.00000000
   45.11550000    -3.34340000   -43.80000000
   45.07250000    -3.35480000   -39.60000000
   45.02950000    -3.36620000   -42.00000000
   44.98660000    -3.37760000   -39.80000000
   44.94360000    -3.38910000   -40.00000000
   44.90060000    -3.40050000   -40.10000000
   44.85760000    -3.41190000   -40.30000000
   44.81470000    -3.42330000   -39.30000000
   44.77170000    -3.43480000   -37.30000000
   44.72870000    -3.44620000   -38.50000000
   44.68570000    -3.45760000   -38.50000000
   44.64280000    -3.46900000   -35.50000000
   44.59980000    -3.48040000   -36.60000000
   44.55680000    -3.49190000   -35.80000000
   44.51380000    -3.50330000   -37.00000000
   44.47090000    -3.51470000   -37.00000000
   44.42790000    -3.52610000   -37.10000000
   44.38490000    -3.53760000   -38.30000000
   44.34190000    -3.54900000   -37.50000000
   44.29900000    -3.56040000   -35.50000000
   44.25600000    -3.57180000   -35.50000000
   44.21300000    -3.58320000   -35.60000000
   44.17000000    -3.59470000   -35.80000000
   44.12990000    -3.60740000   -26.30000000
   44.09230000    -3.62140000   -26.40000000
   44.05470000    -3.63530000   -24.40000000
   44.01710000    -3.64920000   -24.60000000
   43.97950000    -3.66320000   -25.80000000
   43.94190000    -3.67710000   -23.80000000
   43.90430000    -3.69110000   -27.30000000
   43.86670000    -3.71240000   -35.10000000
   43.82340000    -3.73380000   -23.30000000
   43.78520000    -3.74890000   -22.40000000
   43.74700000    -3.76410000   -22.60000000
   43.70880000    -3.77920000   -21.80000000
   43.67060000    -3.79430000   -20.80000000
   43.63250000    -3.80950000   -21.00000000
   43.59430000    -3.82460000   -21.30000000
   43.55610000    -3.83970000   -19.30000000
   43.51790000    -3.85490000   -19.40000000
   43.47970000    -3.87000000   -22.80000000
   43.44150000    -3.88510000   -24.00000000
   43.40340000    -3.90020000   -28.50000000
   43.36520000    -3.91540000   -28.80000000
   43.32700000    -3.93050000   -24.60000000
   43.28880000    -3.94560000   -29.10000000
   43.25060000    -3.96080000   -33.60000000
   43.21240000    -3.97590000   -33.80000000
   43.17430000    -3.99100000   -34.00000000
   43.13610000    -4.00610000   -33.10000000
   43.09790000    -4.02130000   -35.50000000
   43.05970000    -4.03640000   -35.60000000
   43.02150000    -4.05150000   -34.80000000
   42.85450000    -4.08300000   -45.80000000
   42.81510000    -4.09790000   -49.30000000
   42.77580000    -4.11270000   -49.50000000
   42.73640000    -4.12760000   -48.50000000
   42.69700000    -4.14240000   -48.80000000
   42.65760000    -4.15730000   -50.00000000
   42.61820000    -4.17210000   -49.10000000
   42.57880000    -4.18700000   -51.50000000
   42.53940000    -4.20180000   -45.30000000
   42.28730000    -4.21480000   -46.80000000
   42.24480000    -4.21440000   -46.80000000
   42.20220000    -4.21410000   -42.50000000
   42.15970000    -4.21370000   -42.50000000
   41.90450000    -4.21140000   -31.60000000
   41.86190000    -4.21110000   -31.60000000
   41.81940000    -4.21070000   -25.30000000
   41.77690000    -4.21030000   -20.90000000
   41.73430000    -4.20990000   -23.00000000
   41.69180000    -4.20960000   -20.90000000
   41.64930000    -4.20920000   -16.60000000
   41.60670000    -4.20880000   -12.40000000
   41.55150000    -4.20540000    -5.40000000
   41.55500000    -4.19820000    -5.30000000
   41.50080000    -4.20420000     0.90000000
   41.46200000    -4.20090000     7.40000000
   41.42310000    -4.19750000    11.80000000
   41.38430000    -4.19420000    16.00000000
   41.34550000    -4.19090000    18.30000000
   41.30660000    -4.18760000    20.40000000
   41.26780000    -4.18430000    19.30000000
   41.22900000    -4.18100000    19.40000000
   41.19010000    -4.17770000    18.40000000
   41.15130000    -4.17440000    12.10000000
   41.11240000    -4.17110000     7.80000000
   41.07360000    -4.16780000     4.60000000
   41.03480000    -4.16450000    -0.90000000
   40.99590000    -4.16120000    -7.30000000
   40.95710000    -4.15790000   -15.80000000
   40.91830000    -4.15460000   -24.30000000
   40.87940000    -4.15130000   -35.00000000
   40.84060000    -4.14800000   -41.30000000
   40.80180000    -4.14470000   -48.80000000
   40.76290000    -4.14140000   -51.00000000
   40.72410000    -4.13810000   -47.80000000
   40.68530000    -4.13480000   -40.10000000
   40.64640000    -4.13150000   -28.30000000
   40.60760000    -4.12820000   -19.60000000
   40.56880000    -4.12490000   -13.30000000
   40.52990000    -4.12160000    -8.90000000
   40.49110000    -4.11830000    -6.70000000
   40.45220000    -4.11500000    -6.70000000
   40.41340000    -4.11170000    -9.90000000
   40.37460000    -4.10840000   -15.20000000
   40.33570000    -4.10510000   -18.30000000
   40.29690000    -4.10180000   -27.90000000
   40.25810000    -4.09850000   -34.30000000
   40.21920000    -4.09520000   -45.00000000
   40.18040000    -4.09190000   -55.60000000
   40.14160000    -4.08860000   -66.40000000
   40.10270000    -4.08530000   -71.80000000
   40.06390000    -4.08200000   -79.20000000
   40.02510000    -4.07870000   -87.80000000
   39.98620000    -4.07540000   -94.20000000
   39.94740000    -4.07210000   -96.30000000
   39.83450000    -4.13270000   -80.00000000
   39.84720000    -4.16390000   -79.30000000
   39.85980000    -4.19510000   -82.90000000
   39.87250000    -4.22620000   -83.30000000
   39.88520000    -4.25740000   -77.30000000
   39.89780000    -4.28860000   -73.40000000
   39.91050000    -4.31980000   -70.60000000
   39.92310000    -4.35090000   -62.50000000
   39.95590000    -4.35180000   -48.00000000
   39.97780000    -4.30610000   -52.80000000
   39.99970000    -4.26040000   -56.50000000
   40.02160000    -4.21470000   -64.40000000
   40.04360000    -4.16900000   -68.10000000
   40.06550000    -4.12330000   -71.80000000
   40.08740000    -4.07760000   -73.40000000
   40.10940000    -4.03190000   -75.00000000
   40.09120000    -4.01830000   -86.00000000
   40.05290000    -4.02080000   -89.20000000
   40.01470000    -4.02330000   -94.60000000
   39.97640000    -4.02580000   -93.60000000
   39.93820000    -4.02830000   -93.60000000
