   72.86100000     9.15890000   -53.50000000
   72.84290000     9.17240000   -52.80000000
   72.82490000     9.18600000   -52.10000000
   72.78820000     9.21340000   -46.10000000
   72.76850000     9.22660000   -46.30000000
   72.74850000     9.23970000   -43.50000000
   72.72850000     9.25270000   -41.00000000
   72.70840000     9.26580000   -36.30000000
   72.68840000     9.27880000   -31.50000000
   72.66840000     9.29190000   -28.90000000
   72.64840000     9.30490000   -26.30000000
   72.62840000     9.31800000   -23.60000000
   72.60840000     9.33100000   -22.90000000
   72.58830000     9.34410000   -22.30000000
   72.56810000     9.35700000   -23.50000000
   72.54700000     9.36970000   -24.90000000
   72.52580000     9.38240000   -26.30000000
   72.50510000     9.39560000   -25.10000000
   72.48500000     9.40960000   -26.50000000
   72.46480000     9.42360000   -29.90000000
   72.42420000     9.45180000   -37.80000000
   72.40370000     9.46610000   -39.30000000
   72.38320000     9.48040000   -38.60000000
   72.36260000     9.49460000   -40.00000000
   72.34210000     9.50890000   -41.50000000
   72.32160000     9.52310000   -45.00000000
   72.30140000     9.53740000   -48.30000000
   72.28130000     9.55160000   -51.80000000
   72.26110000     9.56580000   -53.30000000
   72.24100000     9.58000000   -52.60000000
   72.22090000     9.59420000   -51.00000000
   72.20080000     9.60840000   -50.50000000
   72.18060000     9.62270000   -49.80000000
   72.16050000     9.63690000   -48.30000000
   72.14040000     9.65110000   -44.60000000
   72.12020000     9.66530000   -43.00000000
   72.09950000     9.67950000   -43.30000000
   72.05630000     9.70790000   -44.10000000
   72.03460000     9.72210000   -48.60000000
   72.01300000     9.73630000   -53.10000000
   71.99130000     9.75050000   -56.50000000
   71.96970000     9.76470000   -57.00000000
   71.94810000     9.77890000   -58.50000000
   71.92640000     9.79310000   -58.80000000
   71.90480000     9.80730000   -56.30000000
   71.88310000     9.82150000   -52.60000000
   71.86150000     9.83570000   -49.00000000
   71.83990000     9.84990000   -46.50000000
   71.81820000     9.86410000   -44.80000000
   71.79660000     9.87830000   -45.30000000
   71.77490000     9.89250000   -44.60000000
   71.75330000     9.90670000   -45.10000000
   71.73170000     9.92090000   -45.50000000
   71.71000000     9.93510000   -46.00000000
   71.66690000     9.96330000   -48.50000000
   71.64540000     9.97740000   -47.80000000
   71.62390000     9.99150000   -47.30000000
   71.60240000    10.00560000   -46.80000000
   71.58090000    10.01970000   -47.10000000
   71.55940000    10.03380000   -47.50000000
   71.53790000    10.04790000   -48.00000000
   71.51640000    10.06200000   -48.50000000
   71.49490000    10.07600000   -49.80000000
   71.47340000    10.09010000   -52.30000000
   71.45190000    10.10420000   -53.80000000
   71.43030000    10.11830000   -55.30000000
   71.40880000    10.13240000   -55.60000000
   71.38730000    10.14650000   -57.10000000
   71.36580000    10.16060000   -57.50000000
   71.32330000    10.18870000   -55.00000000
   71.28150000    10.21680000   -52.50000000
   71.26070000    10.23070000   -51.80000000
   71.23990000    10.24470000   -51.30000000
   71.21900000    10.25870000   -51.80000000
   71.19820000    10.27260000   -52.10000000
   71.17740000    10.28660000   -51.60000000
   71.15650000    10.30060000   -52.00000000
   71.13570000    10.31450000   -52.50000000
   71.11490000    10.32850000   -52.00000000
   71.09400000    10.34250000   -53.30000000
   71.07320000    10.35640000   -51.80000000
   71.01360000    10.40050000   -47.30000000
   70.99420000    10.41560000   -46.80000000
   70.97480000    10.43060000   -46.30000000
   70.95540000    10.44570000   -47.80000000
   70.93600000    10.46070000   -48.30000000
   70.91660000    10.47580000   -48.80000000
   70.89730000    10.49090000   -50.30000000
   70.87790000    10.50590000   -50.80000000
   70.85850000    10.52100000   -51.10000000
   70.83910000    10.53600000   -51.60000000
   70.81970000    10.55110000   -49.10000000
   70.80030000    10.56610000   -48.60000000
   70.78100000    10.58120000   -48.00000000
   70.76160000    10.59630000   -47.50000000
   70.74220000    10.61130000   -47.00000000
   70.72280000    10.62640000   -47.50000000
   70.68440000    10.65610000   -53.50000000
   70.66550000    10.67080000   -57.00000000
   70.64650000    10.68550000   -58.50000000
   70.62750000    10.70020000   -58.80000000
   70.60860000    10.71490000   -58.30000000
   70.58960000    10.72960000   -56.80000000
   70.57060000    10.74430000   -54.30000000
   70.55170000    10.75900000   -51.80000000
   70.53270000    10.77370000   -47.10000000
   70.51370000    10.78840000   -42.60000000
   70.49470000    10.80310000   -37.00000000
   70.47580000    10.81780000   -39.50000000
   70.45680000    10.83260000   -42.00000000
   70.43780000    10.84730000   -43.50000000
   70.41890000    10.86200000   -45.00000000
   70.39990000    10.87670000   -45.50000000
   70.38090000    10.89140000   -47.00000000
   70.34300000    10.92080000   -50.00000000
   70.32400000    10.93550000   -48.50000000
   70.30500000    10.95020000   -48.00000000
   70.28600000    10.96490000   -47.50000000
   70.26700000    10.97960000   -48.00000000
   70.24800000    10.99430000   -48.50000000
   70.22900000    11.00900000   -49.00000000
   70.21000000    11.02370000   -49.50000000
   70.19110000    11.03840000   -50.00000000
   70.17210000    11.05310000   -50.50000000
   70.15310000    11.06780000   -50.80000000
   70.13410000    11.08250000   -52.50000000
   70.11510000    11.09720000   -53.00000000
   70.09610000    11.11190000   -51.30000000
   70.07710000    11.12660000   -50.80000000
   70.05810000    11.14130000   -51.30000000
   70.03920000    11.15600000   -50.80000000
   70.00080000    11.18570000   -51.80000000
   69.98140000    11.20070000   -51.30000000
   69.96220000    11.21540000   -51.00000000
   69.94310000    11.22970000   -51.50000000
   69.92400000    11.24410000   -52.00000000
   69.90490000    11.25840000   -52.50000000
   69.88590000    11.27270000   -51.00000000
   69.86680000    11.28700000   -51.50000000
   69.84770000    11.30140000   -52.00000000
   69.82860000    11.31570000   -52.50000000
   69.80950000    11.33000000   -53.00000000
   69.79040000    11.34440000   -53.50000000
   69.77140000    11.35860000   -53.30000000
   69.75260000    11.37240000   -52.80000000
   69.73370000    11.38620000   -52.30000000
   69.71490000    11.40010000   -52.80000000
   69.69610000    11.41390000   -53.10000000
   69.65820000    11.44170000   -52.50000000
   69.63920000    11.45560000   -52.00000000
   69.62030000    11.46950000   -51.50000000
   69.60130000    11.48350000   -52.00000000
   69.58230000    11.49740000   -49.50000000
   69.56330000    11.51140000   -47.80000000
   69.54430000    11.52530000   -47.30000000
   69.52530000    11.53920000   -45.80000000
   69.50630000    11.55310000   -44.30000000
   69.48730000    11.56700000   -43.80000000
   69.46830000    11.58090000   -43.30000000
   69.41140000    11.62260000   -37.80000000
   69.39240000    11.63650000   -36.30000000
   69.37340000    11.65040000   -36.80000000
   69.35420000    11.66460000   -39.00000000
   69.31400000    11.69550000   -39.00000000
   69.29400000    11.71100000   -38.60000000
   69.27390000    11.72640000   -37.10000000
   69.25380000    11.74190000   -37.80000000
   69.23410000    11.75720000   -36.10000000
   69.21440000    11.77240000   -35.80000000
   69.19470000    11.78760000   -37.30000000
   69.17510000    11.80280000   -36.80000000
   69.15540000    11.81800000   -36.30000000
   69.13570000    11.83320000   -37.00000000
   69.11600000    11.84840000   -36.50000000
   69.09640000    11.86360000   -37.00000000
   69.07670000    11.87880000   -37.50000000
   69.05700000    11.89400000   -38.00000000
   69.03730000    11.90920000   -37.60000000
   69.01760000    11.92430000   -39.10000000
   68.99800000    11.93950000   -39.80000000
   68.95830000    11.97020000   -40.50000000
   68.93830000    11.98560000   -41.10000000
   68.91830000    12.00110000   -40.60000000
   68.89840000    12.01650000   -40.30000000
   68.87840000    12.03190000   -39.80000000
   68.85840000    12.04740000   -38.30000000
   68.83840000    12.06280000   -36.80000000
   68.81840000    12.07820000   -35.50000000
   68.79840000    12.09370000   -35.00000000
   68.77850000    12.10910000   -35.50000000
   68.75850000    12.12460000   -37.10000000
   68.73850000    12.14000000   -38.80000000
   68.71880000    12.15560000   -39.80000000
   68.69940000    12.17130000   -38.50000000
   68.67990000    12.18700000   -39.00000000
   68.66050000    12.20280000   -39.60000000
   68.64100000    12.21850000   -40.10000000
   68.60210000    12.24990000   -41.30000000
   68.58270000    12.26570000   -43.00000000
   68.56320000    12.28140000   -42.50000000
   68.54380000    12.29710000   -42.10000000
   68.50480000    12.32860000   -42.30000000
   68.48540000    12.34430000   -42.80000000
   68.46590000    12.36000000   -41.50000000
   68.44640000    12.37570000   -42.00000000
   68.42690000    12.39150000   -42.60000000
   68.40740000    12.40720000   -43.30000000
   68.38790000    12.42290000   -42.80000000
   68.36840000    12.43860000   -43.50000000
   68.34890000    12.45440000   -44.00000000
   68.32940000    12.47010000   -44.60000000
   68.30990000    12.48580000   -45.30000000
   68.29050000    12.50150000   -44.80000000
   68.25150000    12.53300000   -45.00000000
   68.23200000    12.54870000   -44.50000000
   68.21270000    12.56470000   -42.10000000
   68.19360000    12.58080000   -40.80000000
   68.17440000    12.59700000   -40.30000000
   68.15530000    12.61310000   -40.00000000
   68.13620000    12.62930000   -40.50000000
   68.11700000    12.64540000   -39.10000000
   68.09790000    12.66160000   -38.80000000
   68.07880000    12.67770000   -39.50000000
   68.05960000    12.69390000   -40.00000000
   68.04050000    12.71000000   -40.60000000
   68.02140000    12.72620000   -39.30000000
   68.00230000    12.74230000   -37.80000000
   67.98310000    12.75850000   -37.50000000
   67.96400000    12.77460000   -36.00000000
   67.94430000    12.79030000   -37.30000000
   67.90470000    12.82160000   -35.60000000
   67.88480000    12.83730000   -35.30000000
   67.86500000    12.85300000   -34.80000000
   67.84510000    12.86870000   -34.50000000
   67.82520000    12.88440000   -34.00000000
   67.80540000    12.90000000   -34.60000000
   67.78550000    12.91570000   -35.30000000
   67.76560000    12.93140000   -33.80000000
   67.74580000    12.94710000   -33.50000000
   67.72590000    12.96280000   -34.00000000
   67.70600000    12.97840000   -33.60000000
   67.68610000    12.99410000   -33.30000000
   67.66630000    13.00980000   -34.00000000
   67.64640000    13.02550000   -34.50000000
   67.62650000    13.04120000   -34.10000000
   67.60670000    13.05680000   -33.80000000
   67.58680000    13.07250000   -33.30000000
   67.54690000    13.10400000   -33.00000000
   67.52680000    13.11980000   -33.60000000
   67.50680000    13.13570000   -32.30000000
   67.48670000    13.15150000   -31.80000000
   67.46660000    13.16730000   -31.40000000
   67.44660000    13.18310000   -31.00000000
   67.42650000    13.19890000   -31.80000000
   67.40640000    13.21480000   -30.30000000
   67.38640000    13.23060000   -30.90000000
   67.36630000    13.24640000   -30.50000000
   67.34630000    13.26220000   -30.30000000
   67.32620000    13.27800000   -29.80000000
   67.30610000    13.29390000   -30.40000000
   67.28610000    13.30970000   -32.10000000
   67.26600000    13.32550000   -32.80000000
   67.24590000    13.34130000   -31.30000000
   67.19140000    13.36270000   -31.90000000
   67.17140000    13.37840000   -31.50000000
   67.15150000    13.39420000   -31.10000000
   67.13150000    13.40990000   -29.80000000
   67.11150000    13.42560000   -29.40000000
   67.00550000    13.49430000   -27.00000000
   66.97930000    13.50000000   -24.30000000
   66.95300000    13.50580000   -24.50000000
   66.92680000    13.51150000   -23.80000000
   66.90060000    13.51730000   -22.90000000
   66.87440000    13.52300000   -23.30000000
   66.84820000    13.52880000   -24.40000000
   66.82200000    13.53450000   -24.60000000
   66.79580000    13.54020000   -24.90000000
   66.76950000    13.54590000   -25.80000000
   66.74260000    13.55100000   -26.00000000
   66.71570000    13.55620000   -26.30000000
   66.68880000    13.56130000   -25.40000000
   66.66190000    13.56650000   -24.60000000
   66.60810000    13.57680000   -23.90000000
   66.58130000    13.58190000   -23.10000000
   66.55440000    13.58710000   -23.40000000
   66.52760000    13.59220000   -24.60000000
   66.50070000    13.59740000   -23.80000000
   66.47380000    13.60250000   -25.00000000
   66.44700000    13.60770000   -26.30000000
   66.42010000    13.61280000   -25.40000000
   66.39330000    13.61800000   -26.80000000
   66.36640000    13.62310000   -26.90000000
   66.33950000    13.62830000   -26.10000000
   66.31270000    13.63340000   -26.30000000
   66.28580000    13.63860000   -25.50000000
   66.25890000    13.64370000   -24.80000000
   66.23210000    13.64880000   -23.90000000
   66.20520000    13.65400000   -24.10000000
   66.17840000    13.65910000   -23.30000000
   66.12430000    13.67070000   -22.50000000
   66.09720000    13.67650000   -22.80000000
   66.07000000    13.68240000   -23.00000000
   66.04280000    13.68820000   -23.30000000
   66.01570000    13.69410000   -24.50000000
   65.98850000    13.70000000   -24.80000000
   65.96130000    13.70580000   -23.90000000
   65.93420000    13.71170000   -24.30000000
   65.90700000    13.71750000   -24.40000000
   65.87980000    13.72340000   -24.80000000
   65.85270000    13.72930000   -24.90000000
   65.82550000    13.73510000   -25.10000000
   65.79830000    13.74100000   -25.40000000
   65.74340000    13.75190000   -26.30000000
   65.71570000    13.75700000   -26.50000000
   65.68800000    13.76210000   -25.80000000
   65.63250000    13.77240000   -27.10000000
   65.60470000    13.77750000   -27.30000000
   65.57700000    13.78260000   -27.50000000
   65.54920000    13.78770000   -27.80000000
   65.52150000    13.79280000   -26.90000000
   65.49370000    13.79790000   -26.10000000
   65.46600000    13.80300000   -26.30000000
   65.43820000    13.80810000   -26.60000000
   65.41050000    13.81320000   -26.80000000
   65.38280000    13.81830000   -27.00000000
   65.35500000    13.82340000   -27.30000000
   65.32730000    13.82850000   -27.40000000
   65.29950000    13.83360000   -27.60000000
   65.27180000    13.83870000   -26.80000000
   65.24400000    13.84380000   -27.00000000
   65.21630000    13.84890000   -27.30000000
   65.18850000    13.85400000   -26.50000000
   65.13290000    13.86430000   -27.10000000
   65.10510000    13.86940000   -26.30000000
   65.07720000    13.87450000   -26.50000000
   65.04940000    13.87960000   -25.80000000
   65.02150000    13.88480000   -25.90000000
   64.91010000    13.90530000   -25.80000000
   64.88240000    13.91040000   -25.40000000
   64.85480000    13.91550000   -25.80000000
   64.82710000    13.92060000   -24.90000000
   64.79950000    13.92570000   -25.10000000
   64.77190000    13.93080000   -24.30000000
   64.74420000    13.93600000   -24.50000000
   64.71660000    13.94110000   -24.80000000
   64.68900000    13.94620000   -24.90000000
   64.63330000    13.95650000   -24.30000000
   64.60530000    13.96170000   -23.50000000
   64.57730000    13.96690000   -23.80000000
   64.54930000    13.97210000   -22.90000000
   64.52130000    13.97730000   -23.10000000
   64.49280000    13.98300000   -24.80000000
   64.46430000    13.98880000   -25.90000000
   64.43580000    13.99460000   -26.30000000
   64.40720000    14.00040000   -25.40000000
   64.37870000    14.00620000   -26.60000000
   64.35020000    14.01200000   -25.90000000
   64.29380000    14.02340000   -25.60000000
   64.26600000    14.02890000   -25.90000000
   64.23810000    14.03440000   -26.10000000
   64.21020000    14.03990000   -26.30000000
   64.18240000    14.04540000   -26.60000000
   64.12650000    14.05650000   -26.50000000
   64.09880000    14.06230000   -24.80000000
   64.07150000    14.06830000   -24.90000000
   64.04430000    14.07440000   -25.30000000
   64.01700000    14.08040000   -24.40000000
   63.98980000    14.08650000   -24.80000000
   63.96260000    14.09250000   -25.00000000
   63.93530000    14.09860000   -24.30000000
   63.90810000    14.10470000   -24.50000000
   63.88080000    14.11070000   -23.80000000
   63.85360000    14.11680000   -24.00000000
   63.79880000    14.12850000   -25.10000000
   63.77130000    14.13420000   -24.40000000
   63.74380000    14.13990000   -24.60000000
   63.71630000    14.14560000   -24.80000000
   63.68880000    14.15130000   -24.10000000
   63.63390000    14.16260000   -24.10000000
   63.60660000    14.16830000   -24.30000000
   63.57930000    14.17390000   -23.50000000
   63.55190000    14.17960000   -23.80000000
   63.52460000    14.18520000   -23.00000000
   63.28590000    14.23360000   -18.80000000
   63.25910000    14.23920000   -17.90000000
   63.12730000    14.26670000   -17.10000000
   63.10090000    14.27340000   -17.40000000
   63.07440000    14.28010000   -17.80000000
   63.04800000    14.28680000   -18.00000000
   63.02140000    14.29350000   -19.30000000
   62.99410000    14.30010000   -18.60000000
   62.96690000    14.30670000   -18.90000000
   62.93960000    14.31340000   -18.10000000
   62.86230000    14.34370000   -17.80000000
   62.83730000    14.35560000   -16.30000000
   62.81270000    14.36770000   -15.10000000
   62.78840000    14.38000000   -15.70000000
   62.76410000    14.39220000   -15.20000000
   62.73970000    14.40450000   -15.70000000
   62.71540000    14.41670000   -16.10000000
   62.69100000    14.42900000   -15.80000000
   62.66670000    14.44130000   -16.30000000
   62.64240000    14.45350000   -14.80000000
   62.61800000    14.46580000   -15.30000000
   62.59370000    14.47810000   -15.90000000
   62.56940000    14.49030000   -16.30000000
   62.54500000    14.50260000   -16.80000000
   62.52070000    14.51490000   -16.40000000
   62.49630000    14.52710000   -16.90000000
   62.44740000    14.55180000   -16.60000000
   62.42280000    14.56420000   -15.20000000
   62.39820000    14.57660000   -13.70000000
   62.37360000    14.58890000   -13.30000000
   62.34900000    14.60130000   -11.80000000
   62.32430000    14.61370000   -10.30000000
   62.29870000    14.62440000   -14.20000000
   62.27220000    14.63380000   -13.70000000
   62.24580000    14.64330000   -13.10000000
   62.21940000    14.65280000   -12.40000000
   62.19300000    14.66230000   -11.90000000
   62.16660000    14.67180000   -12.30000000
   62.14020000    14.68130000   -12.70000000
   62.11380000    14.69080000   -12.10000000
   62.08740000    14.70030000   -12.40000000
   62.06100000    14.70980000   -11.90000000
   62.03460000    14.71920000   -10.30000000
   61.94990000    14.73240000    -9.70000000
   61.92080000    14.73420000    -8.70000000
   61.89170000    14.73600000    -7.80000000
   61.86260000    14.73780000    -7.90000000
   61.83340000    14.73960000    -8.00000000
   61.80430000    14.74140000    -8.00000000
   61.77520000    14.74430000    -8.30000000
   61.74600000    14.74770000    -9.40000000
   61.71680000    14.75120000    -9.60000000
   61.68770000    14.75470000    -9.70000000
   61.65850000    14.75810000   -10.90000000
   61.62930000    14.76160000   -11.10000000
   61.60110000    14.76550000    -7.20000000
   61.57360000    14.76960000    -8.30000000
   61.54600000    14.77370000    -8.40000000
   61.51850000    14.77780000    -9.70000000
   61.46320000    14.78600000   -11.60000000
   61.43540000    14.79010000   -12.80000000
   61.40760000    14.79430000   -12.90000000
   61.37990000    14.79840000   -14.10000000
   61.35210000    14.80250000   -15.30000000
   61.32490000    14.80650000   -12.40000000
   61.29830000    14.81030000   -13.70000000
   61.27170000    14.81420000   -14.90000000
   61.24520000    14.81800000   -15.90000000
   61.21860000    14.82180000   -17.10000000
   61.19200000    14.82560000   -17.30000000
   61.16550000    14.82940000   -18.50000000
   61.13890000    14.83320000   -19.60000000
   61.11230000    14.83710000   -21.80000000
   61.08580000    14.84090000   -23.00000000
   61.05920000    14.84470000   -24.30000000
   61.03260000    14.84850000   -25.40000000
   60.98020000    14.85950000   -28.30000000
   60.95430000    14.86660000   -29.60000000
   60.92830000    14.87370000   -30.90000000
   60.90250000    14.88010000   -31.00000000
   60.87670000    14.88620000   -33.30000000
   60.85080000    14.89230000   -33.50000000
   60.82500000    14.89840000   -35.80000000
   60.79920000    14.90450000   -37.10000000
   60.77330000    14.91060000   -38.50000000
   60.74750000    14.91670000   -38.80000000
   60.72170000    14.92280000   -40.00000000
   60.64700000    14.94190000   -44.00000000
   60.62270000    14.94810000   -45.30000000
   60.59840000    14.95430000   -46.50000000
   60.57430000    14.96060000   -45.00000000
   60.55070000    14.96700000   -46.30000000
   60.52720000    14.97330000   -46.50000000
   60.50360000    14.97970000   -46.80000000
   60.48000000    14.98610000   -47.10000000
   60.45650000    14.99260000   -47.10000000
   60.43300000    14.99980000   -48.50000000
   60.40960000    15.00690000   -47.80000000
   60.36270000    15.02130000   -48.50000000
   60.33920000    15.02850000   -47.80000000
   60.31540000    15.03560000   -48.50000000
   60.29130000    15.04280000   -46.80000000
   60.21970000    15.06380000   -41.80000000
   60.19600000    15.07060000   -40.00000000
   60.17230000    15.07740000   -38.30000000
   60.14860000    15.08420000   -34.60000000
   60.12490000    15.09100000   -30.80000000
   60.10130000    15.09780000   -27.10000000
   60.07760000    15.10450000   -23.40000000
   60.05390000    15.11130000   -18.60000000
   60.03020000    15.11810000   -12.90000000
   60.00650000    15.12490000    -9.20000000
   59.98250000    15.13170000    -7.70000000
   59.90880000    15.15190000     4.60000000
   59.88430000    15.15860000     4.30000000
   59.85970000    15.16530000     1.80000000
   59.81080000    15.18040000   -13.90000000
   59.78630000    15.18840000   -25.30000000
   59.73730000    15.20420000   -51.30000000
   59.71280000    15.21220000   -60.80000000
   59.68830000    15.22010000   -71.30000000
   59.66380000    15.22800000   -81.70000000
   59.63930000    15.23600000   -91.20000000
   59.61480000    15.24390000   -99.60000000
   59.56510000    15.25930000  -114.80000000
   59.53980000    15.26690000  -113.10000000
   59.51460000    15.27440000  -109.40000000
   59.48930000    15.28190000  -105.70000000
   59.46400000    15.28940000  -100.00000000
   59.43880000    15.29690000   -96.30000000
   59.41350000    15.30450000   -92.60000000
   59.38410000    15.31360000   -85.30000000
   59.37000000    15.31810000   -85.50000000
   59.35580000    15.32250000   -82.70000000
   59.32060000    15.33330000   -75.30000000
   59.30230000    15.33890000   -72.50000000
   59.28410000    15.34450000   -70.70000000
   59.26620000    15.35030000   -65.80000000
   59.24880000    15.35640000   -63.00000000
   59.23140000    15.36250000   -60.30000000
   59.21400000    15.36870000   -56.50000000
   59.16180000    15.38730000   -50.00000000
   59.14420000    15.39370000   -48.30000000
   59.12650000    15.40020000   -48.50000000
   59.10890000    15.40660000   -48.80000000
   59.09120000    15.41300000   -50.10000000
   59.07350000    15.41950000   -50.50000000
   59.05590000    15.42590000   -49.80000000
   59.03820000    15.43240000   -48.00000000
   59.02060000    15.43880000   -45.30000000
   59.00290000    15.44530000   -42.50000000
   58.98550000    15.45130000   -38.50000000
   58.96830000    15.45720000   -36.80000000
   58.95110000    15.46300000   -37.10000000
   58.93390000    15.46880000   -36.30000000
   58.91670000    15.47470000   -35.60000000
   58.89950000    15.48050000   -35.80000000
   58.86460000    15.49140000   -36.80000000
   58.84690000    15.49650000   -37.00000000
   58.82910000    15.50150000   -37.10000000
   58.81140000    15.50660000   -37.50000000
   58.79360000    15.51170000   -36.60000000
   58.77590000    15.51680000   -35.80000000
   58.75820000    15.52180000   -36.10000000
   58.74040000    15.52690000   -36.30000000
   58.72270000    15.53200000   -36.50000000
   58.70490000    15.53710000   -35.80000000
   58.68720000    15.54210000   -35.00000000
   58.65170000    15.55230000   -33.30000000
   58.63400000    15.55730000   -32.60000000
   58.61630000    15.56330000   -32.00000000
   58.59850000    15.56940000   -30.30000000
   58.58080000    15.57560000   -29.50000000
   58.56300000    15.58170000   -29.80000000
   58.48490000    15.60960000   -30.90000000
   58.46810000    15.61550000   -30.10000000
   58.45120000    15.62140000   -30.40000000
   58.43430000    15.62730000   -30.80000000
   58.41740000    15.63320000   -31.00000000
   58.40060000    15.63910000   -30.30000000
   58.38370000    15.64500000   -29.50000000
   58.36680000    15.65100000   -28.80000000
   58.34950000    15.65720000   -29.40000000
   58.33170000    15.66400000   -27.60000000
   58.31390000    15.67080000   -25.90000000
   58.29610000    15.67760000   -24.30000000
   58.27830000    15.68440000   -21.50000000
   58.24230000    15.69810000   -16.00000000
   58.22410000    15.70500000   -13.40000000
   58.20590000    15.71190000   -10.70000000
   58.18780000    15.71880000    -9.90000000
   58.16960000    15.72570000    -9.30000000
   58.15190000    15.73240000    -5.70000000
   58.13490000    15.73880000    -2.80000000
   58.11780000    15.74520000     1.90000000
   58.10080000    15.75160000     6.80000000
   58.06620000    15.76340000    14.80000000
   58.04860000    15.76890000    17.50000000
   58.03100000    15.77430000    19.30000000
   57.98280000    15.78120000     5.00000000
   57.95750000    15.78420000    -2.50000000
   57.93220000    15.78730000    -7.40000000
   57.90660000    15.79060000   -10.60000000
   57.88100000    15.79380000   -12.80000000
   57.85550000    15.79700000   -14.90000000
   57.82990000    15.80030000   -16.00000000
   57.80430000    15.80350000   -14.30000000
   57.77870000    15.80680000   -11.40000000
   57.75310000    15.81000000   -11.40000000
   57.72670000    15.81450000   -14.30000000
   57.70010000    15.81930000   -15.60000000
   57.67350000    15.82410000   -17.80000000
   57.64680000    15.82890000   -18.90000000
   57.62020000    15.83370000   -19.30000000
   57.31310000    15.67960000    22.30000000
   57.32800000    15.70280000    10.10000000
   57.35810000    15.74970000     0.60000000
   57.37340000    15.77330000     1.40000000
   57.38860000    15.79700000     2.30000000
   57.40380000    15.82060000     0.30000000
   57.41910000    15.84430000    -4.10000000
   57.43430000    15.86790000    -9.20000000
   57.44960000    15.89150000   -12.40000000
   57.46480000    15.91520000   -13.40000000
   57.48000000    15.93880000   -13.60000000
   57.45500000    15.99240000   -10.90000000
   57.45080000    15.98010000    -9.80000000
   57.44690000    15.96870000   -11.30000000
   57.44210000    15.95330000   -16.30000000
   57.43580000    15.93200000   -15.40000000
   57.42960000    15.91080000   -14.40000000
   57.42330000    15.88950000   -12.40000000
   57.41680000    15.86810000   -13.40000000
   57.40890000    15.84630000    -9.40000000
   57.40100000    15.82450000    -5.30000000
   57.39310000    15.80270000    -3.30000000
   57.38530000    15.78080000    -3.30000000
   57.37740000    15.75900000    -7.30000000
   57.36950000    15.73720000   -11.30000000
   57.36170000    15.71540000   -11.30000000
   57.37800000    15.69600000    -9.80000000
   57.40230000    15.69840000    -8.90000000
   57.42700000    15.70220000    -7.10000000
   57.45210000    15.70700000    -7.30000000
   57.79130000    16.33260000    -1.90000000
   57.76970000    16.32100000    -3.50000000
   57.72660000    16.29780000    -2.80000000
   57.70500000    16.28630000    -2.30000000
   57.68340000    16.27470000     1.40000000
   57.66190000    16.26310000    -0.20000000
   57.64030000    16.25150000    -4.70000000
   57.61870000    16.24000000    -9.20000000
   57.59720000    16.22840000   -11.60000000
   57.57560000    16.21680000   -13.10000000
   57.53920000    16.19830000   -14.60000000
   57.52880000    16.19270000   -16.30000000
   57.46940000    16.23370000   -12.20000000
   57.44860000    16.24950000   -11.90000000
   57.42770000    16.26530000   -11.70000000
   57.40690000    16.28110000   -10.40000000
   57.38600000    16.29690000    -9.10000000
   57.36520000    16.31270000    -8.90000000
   57.34390000    16.32840000   -11.10000000
   57.32210000    16.34410000   -11.90000000
   57.30020000    16.35970000   -11.60000000
   57.27840000    16.37540000   -11.40000000
   57.25680000    16.39050000   -10.10000000
   57.23530000    16.40560000    -9.80000000
   57.20720000    16.42570000    -7.50000000
   57.19560000    16.43410000    -7.90000000
   57.16840000    16.45360000    -6.40000000
   57.15420000    16.46380000    -5.90000000
   57.13990000    16.47400000    -7.40000000
   56.95480000    16.50710000     9.20000000
   56.93640000    16.50930000     8.10000000
   56.91800000    16.51150000     7.00000000
   56.81380000    16.52370000    21.50000000
   56.78110000    16.52740000    30.80000000
   56.76310000    16.52960000    26.80000000
   56.74490000    16.53190000    25.60000000
   56.69320000    16.53900000     8.40000000
   56.66690000    16.54260000     5.20000000
   56.64110000    16.54750000     3.10000000
   56.41040000    16.47460000    -7.40000000
   56.41370000    16.45920000    -7.50000000
   56.41740000    16.44210000    -7.60000000
   56.42110000    16.42510000    -7.80000000
   56.42480000    16.40800000    -6.00000000
   56.42850000    16.39100000    -4.10000000
   56.43220000    16.37390000    -3.30000000
   56.43590000    16.35690000    -2.50000000
   56.43970000    16.33980000    -0.60000000
   56.44340000    16.32280000    -1.80000000
   56.44710000    16.30570000    -1.90000000
   56.45080000    16.28870000    -3.10000000
   56.45450000    16.27160000    -3.30000000
   56.45820000    16.25460000    -3.50000000
   56.46190000    16.23750000    -3.80000000
   56.46570000    16.22050000    -3.80000000
   56.46940000    16.20340000    -5.10000000
   56.47640000    16.17030000    -6.50000000
   56.47980000    16.15420000    -6.70000000
   56.48310000    16.13810000    -8.00000000
   56.48650000    16.12210000    -8.20000000
   56.48980000    16.10600000    -6.40000000
   56.49310000    16.08990000    -6.70000000
   56.49650000    16.07380000    -5.90000000
   56.49980000    16.05770000    -5.10000000
   56.50680000    16.02720000     0.20000000
   56.51040000    16.01270000     3.00000000
   56.51400000    15.99830000     6.70000000
   56.51760000    15.98380000     8.40000000
   56.52120000    15.96940000    10.10000000
   56.52480000    15.95490000     9.80000000
   56.52840000    15.94040000    10.40000000
   56.53200000    15.92600000    11.10000000
   56.53560000    15.91150000    11.80000000
   56.53920000    15.89710000    12.40000000
   56.54280000    15.88260000    14.20000000
   56.54640000    15.86810000    14.90000000
   56.55010000    15.85370000    13.40000000
   56.55370000    15.83920000    14.20000000
   56.55730000    15.82480000    14.90000000
   56.56090000    15.81030000    14.60000000
   56.52490000    15.73790000    13.60000000
   56.51460000    15.72340000    15.30000000
   56.50440000    15.70900000    16.90000000
   56.49410000    15.69450000    18.60000000
   56.48380000    15.68000000    20.30000000
   56.47360000    15.66550000    18.90000000
   56.46330000    15.65100000    15.70000000
   56.45310000    15.63660000    12.30000000
   56.44280000    15.62210000     9.90000000
   56.43260000    15.60760000     9.60000000
   56.42230000    15.59310000    11.30000000
   56.41210000    15.57860000    12.90000000
   56.39120000    15.55050000    15.40000000
   56.38060000    15.53680000    16.90000000
   56.37000000    15.52310000    17.50000000
   56.35940000    15.50940000    16.30000000
   56.34880000    15.49570000    16.80000000
   56.33820000    15.48200000    17.40000000
   56.32750000    15.46830000    17.00000000
   56.31690000    15.45460000    16.80000000
   56.30630000    15.44090000    17.30000000
   56.29570000    15.42720000    15.90000000
   56.28510000    15.41350000    14.60000000
   56.27450000    15.39980000    13.20000000
   56.26390000    15.38610000    11.80000000
   56.25320000    15.37240000     9.40000000
   56.24260000    15.35870000     5.00000000
   56.21120000    15.36740000    -2.50000000
   56.19380000    15.37780000    -0.90000000
   56.17640000    15.38820000    -0.50000000
   56.15900000    15.39860000     0.30000000
   56.14160000    15.40890000     0.80000000
   56.12510000    15.41850000     6.00000000
   56.10990000    15.42680000     5.60000000
   56.09480000    15.43520000     4.20000000
   56.07980000    15.44350000     4.10000000
   56.06510000    15.45190000     2.60000000
   56.05050000    15.46030000     2.30000000
   56.03580000    15.46870000     1.80000000
   56.02120000    15.47710000     1.40000000
   55.99170000    15.49390000     2.50000000
   55.97700000    15.50230000     2.10000000
   55.96220000    15.51080000     2.80000000
   55.94750000    15.51920000     3.30000000
   55.93270000    15.52760000     3.00000000
   55.91750000    15.53510000     3.80000000
   55.90210000    15.54190000     3.50000000
   55.88660000    15.54880000     3.30000000
   55.87110000    15.55560000     3.00000000
   55.85560000    15.56240000     2.60000000
   55.84020000    15.56920000     2.30000000
   55.82470000    15.57610000     1.90000000
   55.80920000    15.58290000     1.60000000
   55.79370000    15.58970000     1.30000000
   55.77830000    15.59660000     1.00000000
   55.76280000    15.60340000     0.70000000
   55.74730000    15.61020000     0.40000000
   55.75070000    15.64250000     3.60000000
   55.76010000    15.65520000     8.20000000
   55.76960000    15.66790000    10.60000000
   55.77900000    15.68060000    11.90000000
   55.78840000    15.69340000    13.40000000
   55.79790000    15.70610000    15.90000000
   55.80730000    15.71880000    18.30000000
   55.81670000    15.73150000    19.80000000
   55.82620000    15.74430000    19.10000000
   55.83560000    15.75700000    16.40000000
   55.84510000    15.76970000    12.90000000
   55.85450000    15.78240000    10.30000000
   55.86390000    15.79510000     9.70000000
   55.87340000    15.80790000    11.10000000
   55.88280000    15.82060000    13.40000000
   55.89220000    15.83330000    16.90000000
   55.90820000    15.85420000    18.80000000
   55.93440000    15.88910000    13.30000000
   55.94390000    15.90180000    10.70000000
   55.95330000    15.91460000     7.10000000
   55.96280000    15.92730000     3.30000000
   55.97220000    15.94000000     1.80000000
   55.98170000    15.95270000     0.20000000
   55.99110000    15.96540000    -1.50000000
   56.00060000    15.97820000    -3.10000000
   56.01000000    15.99090000    -3.80000000
   56.01950000    16.00360000    -1.30000000
   56.02890000    16.01630000     1.10000000
   56.03840000    16.02900000     3.50000000
   56.04780000    16.04180000     7.10000000
   56.05730000    16.05450000     8.40000000
   56.07620000    16.08000000     9.40000000
   56.08570000    16.09280000     9.80000000
   56.09520000    16.10550000    10.10000000
   56.10470000    16.11830000    10.40000000
   56.11420000    16.13110000    10.90000000
   56.12370000    16.14390000    11.30000000
   56.13320000    16.15670000    11.70000000
   56.14270000    16.16940000    13.10000000
   56.15220000    16.18220000    12.40000000
   56.17040000    16.20630000    11.30000000
   56.17900000    16.21760000    10.80000000
   56.18770000    16.22890000    10.30000000
   56.19640000    16.24020000     9.70000000
   56.20510000    16.25150000    10.20000000
   56.21380000    16.26280000    10.60000000
   56.22250000    16.27410000    12.10000000
   56.23980000    16.29670000    14.90000000
   56.24840000    16.30790000    16.30000000
   56.25710000    16.31910000    17.80000000
   56.26570000    16.33030000    17.30000000
   56.27440000    16.34160000    17.80000000
   56.28300000    16.35280000    17.30000000
   56.29170000    16.36400000    13.70000000
   56.30030000    16.37520000    12.10000000
   56.30890000    16.38650000     9.60000000
   56.31760000    16.39770000     8.00000000
   56.32620000    16.40890000     7.40000000
   56.33490000    16.42010000     5.90000000
   56.34350000    16.43140000     4.30000000
   56.35210000    16.44260000     1.80000000
   56.36090000    16.45430000    -0.40000000
   56.36980000    16.46670000    -1.90000000
   56.37870000    16.47910000    -3.50000000
   56.39660000    16.50400000    -0.60000000
   56.40560000    16.51650000     0.90000000
   56.41460000    16.52900000     2.30000000
   56.42350000    16.54180000     0.30000000
   56.43190000    16.55600000     0.60000000
   56.44030000    16.57020000     0.90000000
   56.44870000    16.58440000     0.20000000
   56.45710000    16.59860000    -0.70000000
   56.46540000    16.61280000    -1.30000000
   56.47380000    16.62690000    -1.00000000
   56.48220000    16.64110000     0.40000000
   56.49060000    16.65530000     2.60000000
   56.52640000    16.68880000    10.40000000
   56.54010000    16.69860000    11.90000000
   56.55390000    16.70830000    13.40000000
   56.56770000    16.71810000    15.90000000
   56.59560000    16.73710000    22.80000000
   56.60960000    16.74640000    24.30000000
   56.62370000    16.75570000    25.80000000
   56.63770000    16.76500000    25.40000000
   56.66560000    16.78340000    22.80000000
   56.67940000    16.79250000    21.40000000
   56.69320000    16.80160000    20.90000000
   56.70710000    16.81070000    20.50000000
   56.72090000    16.81990000    22.00000000
   56.73470000    16.82890000    21.80000000
   56.74870000    16.83790000    19.30000000
   56.76260000    16.84680000    17.90000000
   56.77650000    16.85580000    14.40000000
   56.79040000    16.86470000    10.90000000
   56.80430000    16.87370000     9.60000000
   56.81820000    16.88260000     7.10000000
   56.83220000    16.89160000     4.60000000
   56.84610000    16.90050000     3.10000000
   56.87440000    16.91870000     2.30000000
   56.88870000    16.92790000     0.90000000
   56.91790000    16.94660000     0.90000000
   56.93260000    16.95610000     1.30000000
   56.94730000    16.96490000     1.40000000
   56.96190000    16.97270000     2.00000000
   56.97640000    16.98040000     1.60000000
   56.99100000    16.98820000     1.30000000
   57.00550000    16.99600000     0.90000000
   57.02010000    17.00410000    -0.70000000
   57.03460000    17.01400000    -2.10000000
   57.04920000    17.02380000    -3.60000000
   57.06370000    17.03360000    -5.30000000
   57.07830000    17.04340000    -6.80000000
   57.09280000    17.05320000    -9.30000000
   57.10730000    17.06310000   -11.80000000
   57.12200000    17.07320000   -12.90000000
   57.13670000    17.08350000   -14.40000000
   57.15140000    17.09380000   -13.90000000
   57.18350000    17.10970000   -12.20000000
   57.20090000    17.11530000   -12.40000000
   57.21830000    17.12090000   -12.80000000
   57.23560000    17.12650000   -15.10000000
   57.25300000    17.13210000   -16.30000000
   57.27040000    17.13770000   -19.60000000
   57.28780000    17.14330000   -24.00000000
   57.30520000    17.14890000   -29.30000000
   57.32260000    17.15450000   -34.60000000
   57.33990000    17.16010000   -39.00000000
   57.35730000    17.16570000   -43.30000000
   57.37470000    17.17130000   -45.60000000
   57.39210000    17.17690000   -49.00000000
   57.40950000    17.18250000   -50.30000000
   57.42680000    17.18810000   -50.50000000
   57.44420000    17.19370000   -50.80000000
   57.46160000    17.19930000   -49.00000000
   57.49600000    17.21040000   -44.50000000
   57.51300000    17.21590000   -39.80000000
   57.53010000    17.22130000   -33.00000000
   57.54710000    17.22680000   -25.10000000
   57.56410000    17.23230000   -20.30000000
   57.58110000    17.23780000   -16.50000000
   57.59820000    17.24320000   -13.90000000
   57.61520000    17.24870000   -11.10000000
   57.63220000    17.25420000    -8.40000000
   57.64930000    17.25970000    -4.60000000
   57.66630000    17.26520000    -0.90000000
   57.68330000    17.27060000     3.00000000
   57.70030000    17.27610000     5.80000000
   57.71740000    17.28160000     7.60000000
   57.73440000    17.28710000     8.30000000
   57.75140000    17.29260000     8.00000000
   57.76840000    17.29800000     6.80000000
   57.80230000    17.30890000     0.70000000
   57.81920000    17.31440000    -1.80000000
   57.83600000    17.31980000    -4.10000000
   57.85290000    17.32520000    -6.40000000
   57.86970000    17.33060000    -7.70000000
   57.88660000    17.33600000    -7.00000000
   57.90340000    17.34150000    -7.30000000
   57.92030000    17.34690000    -6.50000000
   57.93710000    17.35230000    -4.80000000
   57.95400000    17.35770000    -4.00000000
   57.97080000    17.36310000    -3.30000000
   57.98770000    17.36850000    -1.50000000
   58.00450000    17.37400000     1.30000000
   58.02140000    17.37940000     1.00000000
   58.03820000    17.38480000     2.80000000
   58.05510000    17.39020000    -1.60000000
   58.07190000    17.39560000    -7.00000000
   58.10560000    17.40650000   -14.60000000
   58.12250000    17.41190000   -14.90000000
   58.13940000    17.41730000   -14.20000000
   58.15620000    17.42270000   -13.40000000
   58.17310000    17.42820000   -12.70000000
   58.18990000    17.43360000   -10.90000000
   58.20680000    17.43900000   -10.30000000
   58.22360000    17.44440000   -10.40000000
   58.25860000    17.45570000   -15.20000000
   58.27670000    17.46150000   -21.50000000
   58.29470000    17.46740000   -28.80000000
   58.31280000    17.47320000   -35.30000000
   58.33090000    17.47910000   -38.50000000
   58.34900000    17.48500000   -43.00000000
   58.36710000    17.49080000   -45.30000000
   58.38520000    17.49670000   -46.50000000
   58.42160000    17.50840000   -46.60000000
   58.43990000    17.51440000   -47.00000000
   58.45820000    17.52030000   -46.30000000
   58.47640000    17.52590000   -46.00000000
   58.49440000    17.53120000   -44.30000000
   58.51250000    17.53650000   -42.50000000
   58.53060000    17.54180000   -42.80000000
   58.54870000    17.54720000   -43.10000000
   58.56680000    17.55250000   -43.50000000
   58.58490000    17.55780000   -43.60000000
   58.60300000    17.56310000   -43.00000000
   58.62100000    17.56850000   -43.30000000
   58.61590000    17.55360000   -44.80000000
   58.60420000    17.54340000   -45.10000000
   58.59260000    17.53330000   -43.60000000
   58.58100000    17.52320000   -43.10000000
   58.56930000    17.51310000   -39.50000000
   58.55770000    17.50300000   -36.00000000
   58.54610000    17.49290000   -31.40000000
   58.53440000    17.48270000   -28.90000000
   58.52280000    17.47260000   -29.40000000
   58.51120000    17.46250000   -31.90000000
   58.49950000    17.45240000   -35.50000000
   58.48790000    17.44230000   -37.00000000
   58.47630000    17.43210000   -37.50000000
   58.46460000    17.42200000   -37.00000000
   58.45300000    17.41190000   -36.30000000
   58.42960000    17.39160000   -30.50000000
   58.41800000    17.38140000   -27.90000000
   58.40630000    17.37130000   -24.40000000
   58.39460000    17.36110000   -23.80000000
   58.38290000    17.35090000   -24.30000000
   58.37120000    17.34070000   -24.80000000
   58.35950000    17.33060000   -26.30000000
   58.34780000    17.32040000   -26.80000000
   58.33610000    17.31020000   -27.30000000
   58.32440000    17.30000000   -27.80000000
   58.31270000    17.28980000   -27.30000000
   58.30100000    17.27970000   -25.80000000
   58.28930000    17.26950000   -26.30000000
   58.27760000    17.25930000   -27.80000000
   58.26590000    17.24910000   -29.30000000
   58.25420000    17.23900000   -30.80000000
   58.24250000    17.22880000   -32.30000000
   58.21920000    17.20850000   -34.10000000
   58.20760000    17.19840000   -33.60000000
   58.19590000    17.18820000   -33.10000000
   58.18430000    17.17810000   -30.50000000
   58.17270000    17.16800000   -29.00000000
   58.16110000    17.15790000   -26.50000000
   58.14950000    17.14780000   -26.00000000
   58.13790000    17.13770000   -27.50000000
   58.12630000    17.12750000   -30.00000000
   58.11460000    17.11740000   -31.50000000
   58.10300000    17.10730000   -32.00000000
   58.09140000    17.09720000   -30.50000000
   58.07980000    17.08710000   -32.00000000
   58.06850000    17.07730000   -32.80000000
   58.05760000    17.06810000   -35.30000000
   58.04670000    17.05880000   -39.00000000
   58.03580000    17.04960000   -40.50000000
   58.01410000    17.03120000   -42.50000000
   58.00330000    17.02200000   -42.00000000
   57.99240000    17.01290000   -41.50000000
   57.98160000    17.00370000   -41.00000000
   57.97080000    16.99450000   -39.50000000
   57.96000000    16.98530000   -37.10000000
   57.94920000    16.97620000   -34.60000000
   57.93840000    16.96700000   -31.10000000
   57.92750000    16.95780000   -28.60000000
   57.91670000    16.94870000   -25.10000000
   57.90590000    16.93950000   -22.60000000
   57.89510000    16.93030000   -18.10000000
   57.88430000    16.92110000   -13.70000000
   57.87340000    16.91200000    -8.20000000
   57.86260000    16.90280000    -2.60000000
   57.85180000    16.89360000     3.00000000
   57.84100000    16.88450000     8.40000000
   57.81830000    16.86520000    16.80000000
   57.80640000    16.85520000    22.30000000
   57.79450000    16.84520000    26.90000000
   57.78260000    16.83510000    30.40000000
   57.77080000    16.82510000    34.00000000
   57.75890000    16.81510000    36.50000000
   57.74700000    16.80500000    39.00000000
   57.73510000    16.79500000    39.50000000
   57.72320000    16.78500000    39.00000000
   57.71130000    16.77490000    37.50000000
   57.69950000    16.76490000    36.00000000
   57.67570000    16.74590000    26.80000000
   57.66380000    16.73690000    23.10000000
   57.65190000    16.72790000    16.50000000
   57.64000000    16.71890000     9.90000000
   57.62810000    16.70990000     4.30000000
   57.61620000    16.70100000    -3.50000000
   57.60430000    16.69200000   -10.10000000
   57.59230000    16.68290000   -16.00000000
   57.57940000    16.67320000   -17.60000000
   57.56660000    16.66350000   -19.10000000
   57.55370000    16.65390000   -19.60000000
   57.54090000    16.64420000   -19.30000000
   57.52800000    16.63450000   -20.80000000
   57.51510000    16.62480000   -22.30000000
   57.50230000    16.61510000   -23.80000000
   57.48940000    16.60550000   -24.30000000
   57.47660000    16.59580000   -23.90000000
   57.46370000    16.58610000   -24.40000000
   57.45080000    16.57640000   -24.90000000
   57.43800000    16.56670000   -25.50000000
   57.42510000    16.55700000   -26.00000000
   57.41230000    16.54740000   -26.50000000
   57.39940000    16.53770000   -26.00000000
   57.37340000    16.51810000   -25.90000000
   57.36030000    16.50820000   -23.40000000
   57.34710000    16.49830000   -19.80000000
   57.33400000    16.48840000   -17.30000000
   57.32080000    16.47850000   -15.90000000
   57.30770000    16.46860000   -15.40000000
