   87.62320000    -4.02784000   -30.20000000
   87.63430000    -4.02795000   -30.70000000
   87.64540000    -4.02812000   -31.20000000
   87.65640000    -4.02818000   -31.60000000
   87.66750000    -4.02835000   -32.00000000
   87.67860000    -4.02841000   -32.70000000
   87.68970000    -4.02847000   -33.00000000
   87.70080000    -4.02864000   -33.60000000
   87.71190000    -4.02875000   -33.60000000
   87.72360000    -4.02921000   -33.50000000
   87.73510000    -4.02950000   -33.80000000
   87.74670000    -4.02984000   -33.30000000
   87.75810000    -4.03013000   -33.30000000
   87.76960000    -4.03030000   -33.40000000
   87.78040000    -4.03064000   -32.20000000
   87.78740000    -4.03104000   -33.10000000
   87.79110000    -4.03144000   -33.70000000
   87.79860000    -4.03162000   -33.20000000
   87.80990000    -4.03173000   -33.70000000
   87.82160000    -4.03196000   -33.60000000
   87.83310000    -4.03207000   -33.30000000
   87.84460000    -4.03230000   -32.70000000
   87.85600000    -4.03247000   -32.40000000
   87.86750000    -4.03265000   -32.20000000
   87.87890000    -4.03271000   -31.40000000
   87.89040000    -4.03282000   -31.40000000
   87.90180000    -4.03299000   -30.90000000
   87.91330000    -4.03322000   -30.80000000
   87.92470000    -4.03339000   -30.40000000
   87.93620000    -4.03368000   -30.80000000
   87.94800000    -4.03391000   -31.20000000
   87.95930000    -4.03402000   -31.30000000
   87.97070000    -4.03414000   -31.20000000
   87.98210000    -4.03420000   -31.10000000
   87.99340000    -4.03425000   -30.10000000
   88.00480000    -4.03425000   -30.00000000
   88.01620000    -4.03431000   -29.40000000
   88.02760000    -4.03437000   -28.80000000
   88.03900000    -4.03442000   -28.30000000
   88.05040000    -4.03448000   -27.90000000
   88.06180000    -4.03460000   -27.40000000
   88.07320000    -4.03471000   -27.10000000
   88.08100000    -4.03477000   -27.50000000
   88.08470000    -4.03488000   -27.30000000
   88.08760000    -4.03488000   -27.60000000
   88.09040000    -4.03494000   -27.50000000
   88.09340000    -4.03500000   -28.50000000
   88.09970000    -4.03494000   -28.60000000
   88.11020000    -4.03465000   -28.90000000
   88.12140000    -4.03431000   -28.20000000
   88.13260000    -4.03420000   -28.30000000
   88.14380000    -4.03397000   -28.30000000
   88.15510000    -4.03362000   -28.60000000
   88.16650000    -4.03328000   -28.80000000
   88.17780000    -4.03288000   -28.50000000
   88.18910000    -4.03259000   -28.70000000
   88.20040000    -4.03225000   -29.10000000
   88.21170000    -4.03190000   -29.20000000
   88.22310000    -4.03162000   -29.50000000
   88.23460000    -4.03139000   -29.00000000
   88.24600000    -4.03110000   -29.40000000
   88.25740000    -4.03082000   -29.50000000
   88.26880000    -4.03053000   -29.50000000
   88.28020000    -4.03018000   -30.00000000
   88.29160000    -4.02978000   -29.50000000
   88.30300000    -4.02955000   -29.60000000
   88.31440000    -4.02944000   -29.50000000
   88.32580000    -4.02915000   -29.50000000
   88.33720000    -4.02892000   -29.90000000
   88.34860000    -4.02869000   -29.60000000
   88.36000000    -4.02852000   -29.60000000
   88.37140000    -4.02818000   -28.90000000
   88.38280000    -4.02778000   -28.00000000
   88.39410000    -4.02755000   -26.30000000
   88.40530000    -4.02743000   -24.90000000
   88.41650000    -4.02726000   -23.60000000
   88.42770000    -4.02715000   -22.00000000
   88.43890000    -4.02709000   -21.30000000
   88.45010000    -4.02686000   -20.50000000
   88.46130000    -4.02669000   -19.80000000
   88.47250000    -4.02652000   -18.60000000
   88.48380000    -4.02634000   -17.70000000
   88.49500000    -4.02612000   -15.80000000
   88.50620000    -4.02560000   -15.00000000
   88.51730000    -4.02508000   -13.40000000
   88.52860000    -4.02474000   -11.50000000
   88.53990000    -4.02440000   -10.20000000
   88.55130000    -4.02388000    -9.10000000
   88.56270000    -4.02343000    -8.60000000
   88.57410000    -4.02302000    -7.80000000
   88.58550000    -4.02256000    -7.90000000
   88.59700000    -4.02216000    -7.70000000
   88.60840000    -4.02176000    -7.30000000
   88.61970000    -4.02147000    -7.40000000
   88.63100000    -4.02113000    -8.00000000
   88.64230000    -4.02079000    -7.90000000
   88.65370000    -4.02044000    -7.50000000
   88.66500000    -4.02004000    -6.50000000
   88.67640000    -4.01959000    -5.00000000
   88.68790000    -4.01918000    -4.00000000
   88.69920000    -4.01890000    -2.50000000
   88.71060000    -4.01861000    -1.00000000
   88.72210000    -4.01827000     1.10000000
   88.73560000    -4.01764000     3.00000000
   88.74730000    -4.01741000     5.30000000
   88.75890000    -4.01712000     6.80000000
   88.77050000    -4.01666000     8.00000000
   88.78220000    -4.01620000     8.80000000
   88.79400000    -4.01575000     9.60000000
   88.80560000    -4.01529000    10.30000000
   88.81730000    -4.01489000    10.20000000
   88.82900000    -4.01448000    11.00000000
   88.84070000    -4.01403000    11.20000000
   88.85230000    -4.01369000    11.90000000
   88.86400000    -4.01334000    11.90000000
   88.87560000    -4.01305000    12.00000000
   88.88730000    -4.01265000    12.10000000
   88.89890000    -4.01219000    11.70000000
   88.91050000    -4.01179000    11.40000000
   88.92220000    -4.01151000    11.10000000
   88.93380000    -4.01122000    11.40000000
   88.94540000    -4.01093000    11.30000000
   88.95710000    -4.01053000    11.50000000
   88.96970000    -4.01042000    11.00000000
   88.98180000    -4.00990000    11.30000000
   88.99380000    -4.00927000    11.00000000
   89.00590000    -4.00870000    11.40000000
   89.01800000    -4.00830000    11.50000000
   89.03010000    -4.00807000    12.90000000
   89.04220000    -4.00784000    14.50000000
   89.05430000    -4.00755000    16.40000000
   89.06640000    -4.00709000    18.40000000
   89.07850000    -4.00675000    19.40000000
   89.09060000    -4.00641000    20.30000000
   89.10260000    -4.00612000    20.80000000
   89.11470000    -4.00589000    20.70000000
   89.12680000    -4.00549000    20.60000000
   89.13890000    -4.00509000    20.30000000
   89.15100000    -4.00469000    20.40000000
   89.16310000    -4.00434000    21.20000000
   89.17530000    -4.00406000    21.80000000
   89.18750000    -4.00377000    22.00000000
   89.19960000    -4.00343000    22.50000000
   89.21180000    -4.00303000    23.50000000
   89.22370000    -4.00217000    24.90000000
   89.23500000    -4.00148000    25.90000000
   89.24640000    -4.00085000    26.70000000
   89.25770000    -4.00022000    28.00000000
   89.26980000    -3.99993000    28.10000000
   89.28170000    -3.99965000    27.60000000
   89.29360000    -3.99947000    28.90000000
   89.30550000    -3.99936000    31.00000000
   89.31740000    -3.99919000    33.20000000
   89.32940000    -3.99907000    34.90000000
   89.34130000    -3.99896000    35.30000000
   89.35320000    -3.99873000    35.60000000
   89.36510000    -3.99861000    34.40000000
   89.37710000    -3.99844000    32.30000000
   89.38980000    -3.99804000    31.40000000
   89.40230000    -3.99775000    31.20000000
   89.41470000    -3.99752000    30.10000000
   89.42720000    -3.99718000    29.80000000
   89.43960000    -3.99678000    29.10000000
   89.45210000    -3.99655000    27.70000000
   89.46450000    -3.99649000    27.40000000
   89.47690000    -3.99644000    27.30000000
   89.48940000    -3.99632000    27.10000000
   89.50190000    -3.99615000    26.80000000
   89.51430000    -3.99609000    26.70000000
   89.52690000    -3.99598000    26.80000000
   89.53910000    -3.99586000    26.60000000
   89.55110000    -3.99575000    27.20000000
   89.56330000    -3.99564000    27.80000000
   89.57550000    -3.99558000    28.40000000
   89.58770000    -3.99564000    28.90000000
   89.59980000    -3.99581000    28.50000000
   89.61200000    -3.99581000    28.10000000
   89.62410000    -3.99575000    27.90000000
   89.63620000    -3.99575000    26.90000000
   89.64830000    -3.99575000    25.90000000
   89.66050000    -3.99581000    25.40000000
   89.67260000    -3.99575000    25.40000000
   89.68470000    -3.99564000    24.90000000
   89.69690000    -3.99546000    24.70000000
   89.70900000    -3.99541000    24.10000000
   89.72110000    -3.99541000    24.00000000
   89.73330000    -3.99529000    24.00000000
   89.74550000    -3.99518000    24.10000000
   89.75770000    -3.99506000    24.20000000
   89.76980000    -3.99512000    24.00000000
   89.78200000    -3.99523000    23.90000000
   89.79410000    -3.99523000    23.90000000
   89.80630000    -3.99529000    24.10000000
   89.81850000    -3.99529000    23.70000000
   89.83060000    -3.99541000    23.10000000
   89.84280000    -3.99529000    22.60000000
   89.85490000    -3.99518000    22.10000000
   89.86710000    -3.99518000    21.60000000
   89.87920000    -3.99506000    20.10000000
   89.89130000    -3.99489000    19.00000000
   89.90340000    -3.99478000    18.40000000
   89.91550000    -3.99461000    18.30000000
   89.92760000    -3.99443000    17.20000000
   89.93970000    -3.99432000    16.20000000
   89.95180000    -3.99415000    15.70000000
   89.96390000    -3.99403000    15.00000000
   89.97600000    -3.99380000    14.10000000
   89.98820000    -3.99374000    12.90000000
   90.00040000    -3.99374000    11.80000000
   90.01240000    -3.99374000    11.40000000
   90.02450000    -3.99374000    10.50000000
   90.03780000    -3.99380000     9.80000000
   90.05020000    -3.99369000     9.40000000
   90.06270000    -3.99352000     8.90000000
   90.07510000    -3.99352000     8.40000000
   90.08770000    -3.99352000     8.10000000
   90.10020000    -3.99346000     8.00000000
   90.11270000    -3.99340000     7.90000000
   90.12520000    -3.99329000     7.80000000
   90.13770000    -3.99317000     7.30000000
   90.15010000    -3.99300000     7.30000000
   90.16290000    -3.99277000     7.10000000
   90.17530000    -3.99283000     6.60000000
   90.18770000    -3.99283000     5.60000000
   90.20010000    -3.99283000     5.00000000
   90.21250000    -3.99283000     3.60000000
   90.22490000    -3.99288000     2.00000000
   90.23730000    -3.99288000     1.00000000
   90.24970000    -3.99283000    -0.40000000
   90.26200000    -3.99271000    -2.30000000
   90.27440000    -3.99265000    -4.20000000
   90.28670000    -3.99248000    -5.90000000
   90.29920000    -3.99248000    -7.90000000
   90.31140000    -3.99260000   -10.00000000
   90.32370000    -3.99265000   -11.30000000
   90.33600000    -3.99271000   -13.00000000
   90.34830000    -3.99283000   -14.80000000
   90.36050000    -3.99294000   -16.40000000
   90.37270000    -3.99334000   -18.70000000
   90.38490000    -3.99369000   -20.50000000
   90.39710000    -3.99397000   -22.10000000
   90.40960000    -3.99420000   -23.20000000
   90.42190000    -3.99432000   -24.60000000
   90.43420000    -3.99432000   -25.00000000
   90.44650000    -3.99415000   -26.20000000
   90.45890000    -3.99391000   -27.70000000
   90.47130000    -3.99386000   -28.30000000
   90.48360000    -3.99386000   -29.30000000
   90.49600000    -3.99374000   -30.10000000
   90.50820000    -3.99369000   -31.00000000
   90.52050000    -3.99363000   -31.60000000
   90.53280000    -3.99357000   -32.00000000
   90.54510000    -3.99363000   -32.10000000
   90.55740000    -3.99363000   -32.30000000
   90.56970000    -3.99357000   -31.00000000
   90.58200000    -3.99352000   -29.30000000
   90.59430000    -3.99357000   -27.20000000
   90.60670000    -3.99363000   -24.70000000
   90.61900000    -3.99374000   -22.30000000
   90.63130000    -3.99391000   -19.90000000
   90.64360000    -3.99409000   -18.30000000
   90.65590000    -3.99403000   -17.10000000
   90.66830000    -3.99403000   -16.60000000
   90.68140000    -3.99380000   -18.10000000
   90.69360000    -3.99397000   -20.00000000
   90.70590000    -3.99415000   -21.30000000
   90.71830000    -3.99397000   -21.70000000
   90.73060000    -3.99386000   -21.70000000
   90.74310000    -3.99380000   -21.70000000
   90.75550000    -3.99369000   -22.90000000
   90.76790000    -3.99369000   -25.80000000
   90.78020000    -3.99369000   -29.40000000
   90.79250000    -3.99369000   -33.00000000
   90.80490000    -3.99369000   -35.10000000
   90.81740000    -3.99369000   -38.00000000
   90.82980000    -3.99369000   -40.00000000
   90.84220000    -3.99363000   -41.30000000
   90.85450000    -3.99357000   -41.80000000
   90.86690000    -3.99346000   -42.30000000
   90.87930000    -3.99340000   -42.00000000
   90.89170000    -3.99346000   -41.10000000
   90.90410000    -3.99357000   -40.50000000
   90.91650000    -3.99363000   -40.20000000
   90.92890000    -3.99374000   -40.10000000
   90.94160000    -3.99420000   -40.10000000
   90.95360000    -3.99478000   -40.50000000
   90.96570000    -3.99546000   -40.40000000
   90.97770000    -3.99632000   -39.60000000
   90.98960000    -3.99718000   -38.50000000
   91.00150000    -3.99804000   -37.60000000
   91.01350000    -3.99890000   -36.60000000
   91.02550000    -3.99970000   -35.50000000
   91.03740000    -4.00056000   -34.40000000
   91.03590000    -4.00096000   -38.30000000
   91.02920000    -4.00211000   -39.20000000
   91.02460000    -4.00297000   -38.50000000
   91.02000000    -4.00371000   -38.80000000
   91.01530000    -4.00452000   -39.60000000
   91.00900000    -4.00526000   -39.10000000
   90.99820000    -4.00606000   -40.60000000
   90.98490000    -4.00686000   -42.20000000
   90.97190000    -4.00767000   -42.90000000
   90.95890000    -4.00847000   -43.70000000
   90.94590000    -4.00933000   -43.60000000
   90.93300000    -4.01013000   -43.40000000
   90.92070000    -4.01030000   -43.50000000
   90.90810000    -4.00996000   -43.80000000
   90.89530000    -4.00973000   -44.50000000
   90.88230000    -4.00984000   -44.90000000
   90.86940000    -4.01002000   -45.20000000
   90.85640000    -4.01013000   -45.00000000
   90.84340000    -4.01013000   -44.30000000
   90.83040000    -4.01019000   -42.90000000
   90.81740000    -4.01019000   -41.60000000
   90.80440000    -4.01019000   -39.10000000
   90.79120000    -4.01013000   -35.80000000
   90.77820000    -4.00939000   -31.60000000
   90.76720000    -4.00841000   -29.10000000
   90.75660000    -4.00686000   -24.80000000
   90.75890000    -4.00721000   -25.20000000
   90.76500000    -4.00721000   -25.80000000
   90.77100000    -4.00715000   -27.40000000
   90.77690000    -4.00709000   -28.40000000
   90.78890000    -4.00669000   -34.00000000
   90.78820000    -4.00658000   -34.90000000
   90.78750000    -4.00641000   -35.20000000
   90.78680000    -4.00623000   -34.90000000
   90.78600000    -4.00600000   -34.80000000
   90.78530000    -4.00578000   -34.50000000
   90.78460000    -4.00555000   -34.40000000
   90.78390000    -4.00526000   -34.50000000
   90.78320000    -4.00497000   -34.40000000
   90.78250000    -4.00469000   -34.40000000
   90.78190000    -4.00440000   -34.40000000
   90.78120000    -4.00406000   -33.80000000
   90.78060000    -4.00371000   -34.10000000
   90.78050000    -4.00320000   -33.90000000
   90.78020000    -4.00286000   -34.20000000
   90.77990000    -4.00245000   -33.90000000
   90.77950000    -4.00205000   -34.10000000
   90.77920000    -4.00165000   -33.60000000
   90.77880000    -4.00131000   -33.30000000
   90.77470000    -4.00022000   -33.90000000
   90.77440000    -3.99993000   -33.50000000
   90.77410000    -3.99965000   -32.40000000
   90.77380000    -3.99930000   -32.20000000
   90.77350000    -3.99902000   -32.10000000
   90.77320000    -3.99873000   -31.60000000
   90.77280000    -3.99844000   -31.50000000
   90.77240000    -3.99816000   -31.40000000
   90.77190000    -3.99787000   -30.90000000
   90.77160000    -3.99758000   -30.70000000
   90.77120000    -3.99735000   -30.60000000
   90.77380000    -3.99684000   -30.10000000
   90.77570000    -3.99661000   -29.60000000
   90.77750000    -3.99638000   -29.20000000
   90.77940000    -3.99621000   -28.00000000
   90.78120000    -3.99604000   -28.30000000
   90.78280000    -3.99569000   -27.40000000
   90.79370000    -3.99374000   -27.40000000
   90.80200000    -3.99386000   -28.60000000
   90.81020000    -3.99386000   -30.90000000
   90.81520000    -3.99380000   -32.80000000
   90.82030000    -3.99391000   -35.40000000
   90.82820000    -3.99403000   -37.70000000
   90.83810000    -3.99426000   -39.90000000
   90.84790000    -3.99455000   -42.10000000
   90.85780000    -3.99478000   -43.30000000
   90.86760000    -3.99489000   -44.70000000
   90.87740000    -3.99500000   -45.00000000
   90.88720000    -3.99506000   -45.10000000
   90.89700000    -3.99506000   -45.00000000
   90.90670000    -3.99500000   -44.50000000
   90.91640000    -3.99500000   -43.70000000
   90.92610000    -3.99506000   -44.00000000
   90.93580000    -3.99518000   -43.20000000
   90.94530000    -3.99523000   -42.60000000
   90.95490000    -3.99529000   -43.00000000
   90.96450000    -3.99541000   -43.70000000
   90.97420000    -3.99546000   -43.00000000
   90.98390000    -3.99552000   -42.30000000
   90.99360000    -3.99552000   -41.50000000
   91.00540000    -3.99569000   -40.10000000
   91.01660000    -3.99604000   -38.60000000
   91.02780000    -3.99644000   -37.20000000
   91.03890000    -3.99684000   -36.50000000
   91.05010000    -3.99718000   -35.40000000
   91.06130000    -3.99758000   -34.30000000
   91.07250000    -3.99804000   -33.00000000
   91.08360000    -3.99850000   -32.40000000
   91.09480000    -3.99890000   -31.30000000
   91.10600000    -3.99925000   -30.80000000
   91.11710000    -3.99953000   -30.60000000
   91.12820000    -3.99993000   -30.00000000
   91.13930000    -4.00045000   -29.70000000
   91.15050000    -4.00091000   -29.70000000
   91.16160000    -4.00131000   -29.60000000
   91.17270000    -4.00171000   -29.80000000
   91.18390000    -4.00205000   -29.80000000
   91.19500000    -4.00239000   -30.30000000
   91.20620000    -4.00286000   -31.10000000
   91.21740000    -4.00331000   -31.40000000
   91.22860000    -4.00371000   -31.70000000
   91.24060000    -4.00406000   -31.30000000
   91.25200000    -4.00434000   -31.30000000
   91.26330000    -4.00474000   -31.30000000
   91.27470000    -4.00509000   -31.40000000
   91.28610000    -4.00543000   -31.30000000
   91.29740000    -4.00572000   -31.50000000
   91.30880000    -4.00600000   -31.60000000
   91.32020000    -4.00641000   -31.80000000
   91.33150000    -4.00681000   -31.70000000
   91.34290000    -4.00732000   -31.80000000
   91.35420000    -4.00778000   -32.10000000
   91.36550000    -4.00818000   -32.30000000
   91.37670000    -4.00847000   -32.40000000
   91.38800000    -4.00881000   -32.20000000
   91.39980000    -4.00910000   -32.40000000
   91.41120000    -4.00933000   -32.70000000
   91.42270000    -4.00944000   -32.30000000
   91.43410000    -4.00967000   -31.70000000
   91.44560000    -4.00990000   -31.80000000
   91.45700000    -4.01013000   -31.90000000
   91.46850000    -4.01042000   -31.50000000
   91.47990000    -4.01065000   -31.70000000
   91.49130000    -4.01059000   -31.40000000
   91.50280000    -4.01047000   -31.70000000
   91.51420000    -4.01030000   -31.20000000
   91.52570000    -4.01002000   -31.00000000
   91.53710000    -4.00984000   -30.90000000
   91.54860000    -4.00967000   -30.80000000
   91.56020000    -4.00944000   -30.20000000
   91.57170000    -4.00927000   -30.40000000
   91.58320000    -4.00910000   -30.20000000
   91.59470000    -4.00893000   -29.80000000
   91.60620000    -4.00881000   -29.90000000
   91.61760000    -4.00864000   -29.50000000
   91.62910000    -4.00847000   -28.70000000
   91.64060000    -4.00813000   -28.50000000
   91.65290000    -4.00790000   -27.80000000
   91.66430000    -4.00761000   -27.40000000
   91.67570000    -4.00738000   -26.80000000
   91.68710000    -4.00698000   -26.30000000
   91.69860000    -4.00664000   -25.80000000
   91.71000000    -4.00635000   -25.40000000
   91.72150000    -4.00600000   -24.80000000
   91.73060000    -4.00583000   -23.50000000
   91.73590000    -4.00578000   -24.10000000
   91.73990000    -4.00572000   -24.10000000
   91.74390000    -4.00555000   -23.50000000
   91.74900000    -4.00549000   -24.30000000
   91.75790000    -4.00526000   -22.80000000
   91.76940000    -4.00497000   -23.20000000
   91.78070000    -4.00480000   -23.20000000
   91.79200000    -4.00463000   -23.00000000
   91.80330000    -4.00446000   -22.60000000
   91.81460000    -4.00417000   -23.20000000
   91.82590000    -4.00406000   -23.30000000
   91.83720000    -4.00394000   -23.60000000
   91.84840000    -4.00383000   -24.30000000
   91.85970000    -4.00360000   -25.10000000
   91.87100000    -4.00343000   -26.20000000
   91.88220000    -4.00331000   -27.50000000
   91.89340000    -4.00308000   -28.70000000
   91.90460000    -4.00280000   -29.60000000
   91.91580000    -4.00263000   -31.00000000
   91.92710000    -4.00251000   -31.80000000
   91.93840000    -4.00234000   -32.80000000
   91.94970000    -4.00211000   -32.90000000
   91.96250000    -4.00148000   -32.70000000
   91.97410000    -4.00125000   -31.70000000
   91.98560000    -4.00108000   -30.60000000
   91.99710000    -4.00096000   -29.30000000
   92.00850000    -4.00096000   -27.80000000
   92.02010000    -4.00102000   -26.10000000
   92.03160000    -4.00113000   -24.30000000
   92.04310000    -4.00125000   -22.60000000
   92.05470000    -4.00136000   -21.30000000
   92.06620000    -4.00136000   -20.50000000
   92.07780000    -4.00131000   -19.80000000
   92.08940000    -4.00125000   -19.70000000
   92.10090000    -4.00119000   -20.50000000
   92.11250000    -4.00113000   -21.90000000
   92.12400000    -4.00102000   -23.00000000
   92.13550000    -4.00091000   -24.70000000
   92.14700000    -4.00073000   -25.80000000
   92.15860000    -4.00068000   -27.20000000
   92.17010000    -4.00068000   -27.80000000
   92.18160000    -4.00068000   -27.80000000
   92.19320000    -4.00073000   -27.60000000
   92.20540000    -4.00062000   -26.80000000
   92.21690000    -4.00045000   -25.70000000
   92.22850000    -4.00033000   -24.70000000
   92.23990000    -4.00016000   -23.80000000
   92.25140000    -4.00005000   -22.10000000
   92.26280000    -3.99999000   -21.00000000
   92.27430000    -3.99987000   -20.20000000
   92.28570000    -3.99976000   -18.80000000
   92.29700000    -3.99965000   -17.40000000
   92.30850000    -3.99959000   -16.50000000
   92.31990000    -3.99947000   -15.50000000
   92.33180000    -3.99890000   -14.50000000
   92.34330000    -3.99844000   -14.10000000
   92.35480000    -3.99799000   -13.70000000
   92.36630000    -3.99758000   -13.00000000
   92.37790000    -3.99712000   -12.90000000
   92.38940000    -3.99667000   -13.30000000
   92.40100000    -3.99615000   -13.40000000
   92.41260000    -3.99575000   -13.90000000
   92.42410000    -3.99529000   -14.70000000
   92.43570000    -3.99478000   -15.00000000
   92.44740000    -3.99426000   -15.50000000
   92.45900000    -3.99380000   -16.00000000
   92.47060000    -3.99334000   -16.50000000
   92.48220000    -3.99277000   -17.30000000
   92.49390000    -3.99208000   -17.90000000
   92.50560000    -3.99157000   -18.70000000
   92.51710000    -3.99111000   -19.10000000
   92.52880000    -3.99059000   -19.50000000
   92.54040000    -3.98996000   -20.80000000
   92.55210000    -3.98945000   -21.40000000
   92.56370000    -3.98893000   -22.50000000
   92.57530000    -3.98830000   -22.60000000
   92.58690000    -3.98773000   -24.00000000
   92.59860000    -3.98727000   -24.80000000
   92.61030000    -3.98687000   -24.70000000
   92.62190000    -3.98658000   -25.00000000
   92.63360000    -3.98624000   -25.30000000
   92.64530000    -3.98595000   -25.60000000
   92.65690000    -3.98561000   -25.70000000
   92.66840000    -3.98526000   -25.80000000
   92.68010000    -3.98487000   -25.80000000
   92.69170000    -3.98440000   -25.80000000
   92.70340000    -3.98395000   -25.40000000
   92.71500000    -3.98355000   -25.20000000
   92.72670000    -3.98320000   -25.20000000
   92.73840000    -3.98291000   -25.30000000
   92.75010000    -3.98257000   -25.00000000
   92.76170000    -3.98211000   -24.50000000
   92.77340000    -3.98160000   -23.60000000
   92.78500000    -3.98120000   -23.20000000
   92.79670000    -3.98079000   -22.90000000
   92.80840000    -3.98028000   -22.10000000
   92.82200000    -3.97936000   -21.10000000
   92.83390000    -3.97873000   -20.20000000
   92.84600000    -3.97816000   -19.80000000
   92.85800000    -3.97770000   -20.00000000
   92.87010000    -3.97713000   -19.10000000
   92.88210000    -3.97656000   -19.40000000
   92.89410000    -3.97615000   -18.80000000
   92.90620000    -3.97564000   -18.30000000
   92.91830000    -3.97495000   -18.30000000
   92.93030000    -3.97426000   -17.50000000
   92.94240000    -3.97381000   -17.30000000
   92.95440000    -3.97329000   -17.00000000
   92.96650000    -3.97272000   -15.90000000
   92.97850000    -3.97220000   -15.50000000
   92.99040000    -3.97180000   -14.80000000
   93.02740000    -3.97031000    -9.10000000
   93.03970000    -3.96979000   -11.50000000
   93.05160000    -3.96934000   -11.30000000
   93.06360000    -3.96894000   -10.40000000
   93.07550000    -3.96848000    -9.80000000
   93.08750000    -3.96791000    -9.00000000
   93.09950000    -3.96739000    -7.60000000
   93.11140000    -3.96687000    -6.40000000
   93.12380000    -3.96624000    -6.20000000
   93.13520000    -3.96567000    -5.10000000
   93.14670000    -3.96509000    -3.90000000
   93.15810000    -3.96469000    -2.40000000
   93.16970000    -3.96412000    -0.90000000
   93.18130000    -3.96355000    -0.10000000
   93.19270000    -3.96326000     1.00000000
   93.20400000    -3.96338000     1.10000000
   93.21520000    -3.96366000     1.80000000
   93.22650000    -3.96383000     1.40000000
   93.23750000    -3.96418000     1.00000000
   93.24840000    -3.96452000    -0.60000000
   93.25930000    -3.96475000    -1.80000000
   93.27020000    -3.96492000    -2.00000000
   93.28120000    -3.96509000    -3.50000000
   93.29230000    -3.96533000    -3.90000000
   93.30370000    -3.96550000    -3.90000000
   93.31510000    -3.96567000    -2.40000000
   93.32650000    -3.96584000    -0.10000000
   93.33790000    -3.96613000     2.90000000
   93.34930000    -3.96647000     5.20000000
   93.36130000    -3.96682000     7.80000000
   93.37280000    -3.96727000     9.90000000
   93.38440000    -3.96779000     9.50000000
   93.39590000    -3.96819000     6.80000000
   93.40730000    -3.96870000     2.50000000
   93.41860000    -3.96922000    -3.30000000
   93.42990000    -3.96968000    -8.20000000
   93.44130000    -3.97014000   -12.60000000
   93.45270000    -3.97060000   -16.80000000
   93.46400000    -3.97105000   -20.70000000
   93.47530000    -3.97152000   -23.60000000
   93.48660000    -3.97203000   -25.50000000
   93.49810000    -3.97226000   -26.30000000
   93.50940000    -3.97243000   -27.60000000
   93.52070000    -3.97260000   -27.50000000
   93.53210000    -3.97278000   -26.30000000
   93.54340000    -3.97300000   -25.20000000
   93.55460000    -3.97318000   -23.10000000
   93.56590000    -3.97335000   -21.00000000
   93.57720000    -3.97369000   -17.90000000
   93.58860000    -3.97398000   -14.80000000
   93.59990000    -3.97415000   -11.50000000
   93.61120000    -3.97438000    -8.10000000
   93.62260000    -3.97461000    -5.60000000
   93.63400000    -3.97472000    -3.70000000
   93.64520000    -3.97484000    -2.10000000
   93.65660000    -3.97512000    -0.80000000
   93.66780000    -3.97552000    -0.10000000
   93.67900000    -3.97592000     0.20000000
   93.69020000    -3.97627000     0.10000000
   93.70140000    -3.97633000     0.40000000
   93.71260000    -3.97644000    -0.40000000
   93.72380000    -3.97650000    -1.30000000
   93.73500000    -3.97667000    -1.90000000
   93.74610000    -3.97701000    -3.00000000
   93.75730000    -3.97730000    -3.60000000
   93.76840000    -3.97753000    -4.40000000
   93.77960000    -3.97782000    -5.60000000
   93.79070000    -3.97799000    -7.70000000
   93.80190000    -3.97799000    -8.60000000
   93.81320000    -3.97810000   -10.60000000
   93.82650000    -3.97816000   -12.40000000
   93.83810000    -3.97856000   -13.40000000
   93.84970000    -3.97885000   -14.80000000
   93.86130000    -3.97913000   -16.40000000
   93.87280000    -3.97959000   -17.60000000
   93.88450000    -3.98017000   -18.00000000
   93.89610000    -3.98074000   -18.70000000
   93.90770000    -3.98143000   -18.90000000
   93.91920000    -3.98223000   -19.00000000
   93.93080000    -3.98303000   -18.10000000
   93.94190000    -3.98378000   -17.50000000
   93.95250000    -3.98475000   -16.40000000
   93.96210000    -3.98824000   -15.30000000
   93.97100000    -3.99374000   -13.20000000
   93.98010000    -3.99919000   -12.30000000
   93.98860000    -4.00463000   -11.70000000
   93.97800000    -4.00979000   -12.80000000
   93.96690000    -4.00950000   -14.10000000
   93.95600000    -4.00939000   -15.60000000
   93.94510000    -4.00927000   -17.00000000
   93.93430000    -4.00899000   -18.00000000
   93.92340000    -4.00870000   -18.90000000
   93.91250000    -4.00847000   -20.20000000
   93.90160000    -4.00824000   -19.90000000
   93.89080000    -4.00818000   -19.40000000
   93.88000000    -4.00801000   -19.00000000
   93.87080000    -4.01884000   -16.90000000
   93.87130000    -4.02881000   -16.50000000
   93.87270000    -4.03809000   -16.30000000
   93.87960000    -4.04216000   -17.10000000
   93.89080000    -4.04176000   -18.20000000
   93.90180000    -4.04153000   -18.40000000
   93.91280000    -4.04136000   -18.90000000
   93.92380000    -4.04124000   -18.90000000
   93.93490000    -4.04107000   -17.40000000
   93.94610000    -4.04090000   -15.90000000
   93.95710000    -4.04090000   -15.20000000
   93.96820000    -4.04095000   -13.20000000
   93.97930000    -4.04073000   -12.40000000
   93.99040000    -4.04033000   -11.20000000
   94.00140000    -4.03993000    -9.40000000
   94.01260000    -4.03952000    -8.10000000
   94.02370000    -4.03924000    -7.20000000
   94.03480000    -4.03895000    -6.50000000
   94.04540000    -4.03975000    -6.90000000
   94.05500000    -4.04353000    -7.00000000
   94.06390000    -4.04915000    -6.80000000
   94.07310000    -4.05454000    -7.60000000
   94.08210000    -4.05998000    -7.50000000
   94.09120000    -4.06537000    -7.90000000
   94.10040000    -4.07069000    -7.60000000
   94.10960000    -4.07608000    -7.40000000
   94.11890000    -4.08158000    -7.80000000
   94.12790000    -4.08714000    -8.30000000
   94.13690000    -4.09275000    -8.70000000
   94.14610000    -4.09814000    -9.10000000
   94.15530000    -4.10352000    -9.60000000
   94.16440000    -4.10897000   -10.00000000
   94.17360000    -4.11429000   -10.20000000
   94.18270000    -4.11968000   -11.10000000
   94.19180000    -4.12518000   -10.90000000
   94.20100000    -4.13062000   -11.80000000
   94.21020000    -4.13601000   -12.80000000
   94.22160000    -4.14162000   -13.00000000
   94.23130000    -4.14747000   -13.90000000
   94.24100000    -4.15331000   -14.00000000
   94.25070000    -4.15922000   -14.20000000
   94.26040000    -4.16512000   -15.00000000
   94.27000000    -4.17096000   -15.40000000
   94.27970000    -4.17680000   -15.30000000
   94.28940000    -4.18270000   -15.50000000
   94.29910000    -4.18861000   -15.20000000
   94.30880000    -4.19445000   -14.90000000
   94.31860000    -4.20035000   -15.40000000
   94.32840000    -4.20637000   -15.30000000
   94.33790000    -4.21239000   -15.20000000
   94.34740000    -4.21834000   -14.50000000
   94.35690000    -4.22436000   -14.30000000
   94.36640000    -4.23055000   -13.90000000
   94.37590000    -4.23674000   -13.90000000
   94.38530000    -4.24281000   -13.50000000
   94.39480000    -4.24900000   -12.80000000
   94.40430000    -4.25519000   -12.10000000
   94.41370000    -4.26137000   -12.40000000
   94.42330000    -4.26750000   -11.80000000
   94.43320000    -4.27386000   -12.50000000
   94.44270000    -4.28011000   -12.30000000
   94.45220000    -4.28647000   -12.40000000
   94.46160000    -4.29283000   -12.30000000
   94.47100000    -4.29913000   -12.60000000
   94.48050000    -4.30549000   -13.20000000
   94.48990000    -4.31179000   -13.10000000
   94.49930000    -4.31815000   -12.40000000
   94.50880000    -4.32440000   -12.50000000
   94.51820000    -4.33064000   -12.70000000
   94.52760000    -4.33700000   -12.70000000
   94.53700000    -4.34342000   -11.90000000
   94.54650000    -4.34984000   -11.80000000
   94.55590000    -4.35620000   -11.50000000
   94.56520000    -4.36256000   -11.00000000
   94.57460000    -4.36903000   -10.10000000
   94.58400000    -4.37551000   -10.10000000
   94.59340000    -4.38187000    -9.60000000
   94.60270000    -4.38834000    -8.50000000
   94.61200000    -4.39482000    -8.30000000
   94.62130000    -4.40118000    -7.50000000
   94.63060000    -4.40759000    -7.20000000
   94.64000000    -4.41395000    -6.30000000
   94.64920000    -4.42043000    -5.40000000
   94.65860000    -4.42684000    -4.80000000
   94.66810000    -4.43309000    -3.90000000
   94.67740000    -4.43945000    -3.00000000
   94.68700000    -4.44575000    -2.30000000
   94.69650000    -4.45194000    -1.50000000
   94.70590000    -4.45818000    -0.80000000
   94.71540000    -4.46437000    -0.30000000
   94.72480000    -4.47073000    -0.10000000
   94.73420000    -4.47698000     0.40000000
   94.74370000    -4.48311000     1.00000000
   94.75330000    -4.48918000     1.60000000
   94.76280000    -4.49531000     1.90000000
   94.77220000    -4.50161000     2.50000000
   94.78180000    -4.50774000     2.60000000
   94.79120000    -4.51399000     2.20000000
   94.80070000    -4.52012000     2.10000000
   94.81010000    -4.52625000     1.70000000
   94.81950000    -4.53244000     0.80000000
   94.82910000    -4.53851000     0.30000000
   94.83870000    -4.54447000     0.20000000
   94.84830000    -4.55026000    -0.90000000
   94.85790000    -4.55622000    -1.20000000
   94.86740000    -4.56229000    -1.70000000
   94.87690000    -4.56831000    -2.30000000
   94.88630000    -4.57449000    -2.70000000
   94.89570000    -4.58085000    -3.80000000
   94.90490000    -4.58716000    -4.20000000
   94.91430000    -4.59346000    -5.00000000
   94.92370000    -4.59965000    -5.00000000
   94.93310000    -4.60578000    -5.10000000
   94.94260000    -4.61191000    -4.90000000
   94.95200000    -4.61815000    -5.40000000
   94.96140000    -4.62428000    -5.50000000
   94.97080000    -4.63053000    -5.10000000
   94.98020000    -4.63678000    -5.00000000
   94.98960000    -4.64302000    -5.00000000
   94.99910000    -4.64921000    -5.00000000
   95.00850000    -4.65528000    -4.30000000
   95.02060000    -4.66181000    -4.00000000
   95.03020000    -4.66737000    -4.20000000
   95.03980000    -4.67316000    -3.80000000
   95.04940000    -4.67900000    -4.30000000
   95.05900000    -4.68473000    -5.20000000
   95.06880000    -4.69023000    -6.20000000
   95.07880000    -4.69545000    -7.80000000
   95.08870000    -4.70077000    -8.90000000
   95.09850000    -4.70628000   -10.20000000
   95.10840000    -4.71166000   -11.80000000
   95.11830000    -4.71687000   -13.40000000
   95.12820000    -4.72215000   -14.90000000
   95.13810000    -4.72753000   -15.80000000
   95.14810000    -4.73292000   -17.10000000
   95.15810000    -4.73825000   -18.00000000
   95.16810000    -4.74346000   -18.80000000
   95.17800000    -4.74879000   -20.20000000
   95.18800000    -4.75412000   -21.40000000
   95.19790000    -4.75939000   -22.90000000
   95.20790000    -4.76460000   -24.00000000
   95.21800000    -4.76981000   -24.80000000
   95.22850000    -4.77451000   -25.00000000
   95.23830000    -4.77938000   -25.30000000
   95.24820000    -4.78425000   -26.10000000
   95.25800000    -4.78924000   -26.90000000
   95.26770000    -4.79434000   -27.20000000
   95.27740000    -4.79932000   -27.90000000
   95.28710000    -4.80431000   -28.30000000
   95.29690000    -4.80935000   -28.30000000
   95.30670000    -4.81439000   -28.00000000
   95.31660000    -4.81938000   -27.90000000
   95.32650000    -4.82431000   -28.20000000
   95.33630000    -4.82929000   -28.20000000
   95.34610000    -4.83433000   -27.40000000
   95.35600000    -4.83926000   -27.10000000
   95.36600000    -4.84413000   -26.80000000
   95.37590000    -4.84911000   -26.40000000
   95.38580000    -4.85410000   -26.30000000
   95.39560000    -4.85926000   -25.70000000
   95.40540000    -4.86441000   -25.60000000
   95.41520000    -4.86951000   -25.00000000
   95.42520000    -4.87444000   -24.80000000
   95.43490000    -4.87948000   -24.50000000
   95.44570000    -4.88447000   -24.00000000
   95.45590000    -4.88939000   -23.70000000
   95.46590000    -4.89443000   -23.60000000
   95.47590000    -4.89953000   -24.00000000
   95.48600000    -4.90457000   -23.40000000
   95.49610000    -4.90962000   -22.20000000
   95.50630000    -4.91460000   -21.30000000
   95.51640000    -4.91953000   -20.40000000
   95.52650000    -4.92440000   -20.00000000
   95.53660000    -4.92927000   -18.70000000
   95.54670000    -4.93408000   -18.00000000
   95.55670000    -4.93907000   -17.20000000
   95.56700000    -4.94468000   -15.90000000
   95.57710000    -4.95024000   -14.80000000
   95.58720000    -4.95580000   -14.00000000
   95.59740000    -4.96124000   -13.50000000
   95.60750000    -4.96668000   -12.40000000
   95.61760000    -4.97219000   -11.90000000
   95.62770000    -4.97763000   -11.50000000
   95.63780000    -4.98307000   -10.80000000
   95.64790000    -4.98868000   -10.00000000
   95.65790000    -4.99424000    -9.10000000
   95.66800000    -4.99980000    -8.10000000
   95.67810000    -5.00536000    -7.20000000
   95.68850000    -5.01092000    -5.80000000
   95.69870000    -5.01624000    -4.20000000
   95.70890000    -5.02157000    -3.10000000
   95.71900000    -5.02690000    -1.40000000
   95.72930000    -5.03200000     0.20000000
   95.73960000    -5.03710000     1.70000000
   95.74980000    -5.04220000     3.10000000
   95.76010000    -5.04741000     4.80000000
   95.77080000    -5.05257000     6.60000000
   95.78100000    -5.05779000     8.00000000
   95.79120000    -5.06288000     8.60000000
   95.80140000    -5.06815000     9.00000000
   95.81150000    -5.07343000     9.60000000
   95.82180000    -5.07864000    11.00000000
   95.83200000    -5.08397000    11.60000000
   95.84220000    -5.08918000    12.60000000
   95.85250000    -5.09434000    13.10000000
   95.86270000    -5.09967000    13.90000000
   95.87310000    -5.10494000    14.10000000
   95.88340000    -5.11021000    15.20000000
   95.89370000    -5.11548000    15.70000000
   95.90420000    -5.12098000    16.10000000
   95.91440000    -5.12648000    16.50000000
   95.92450000    -5.13210000    16.90000000
   95.93460000    -5.13783000    17.30000000
   95.94500000    -5.14344000    17.00000000
   95.95520000    -5.14900000    17.40000000
   95.96550000    -5.15456000    17.60000000
   95.97570000    -5.16017000    18.00000000
   95.98590000    -5.16579000    17.50000000
   95.99600000    -5.17157000    17.40000000
   96.00630000    -5.17736000    17.60000000
   96.01650000    -5.18298000    17.00000000
   96.02680000    -5.18865000    16.30000000
   96.03700000    -5.19432000    15.40000000
   96.04730000    -5.19982000    14.60000000
   96.05760000    -5.20532000    13.90000000
   96.06790000    -5.21076000    12.50000000
   96.07810000    -5.21621000    11.00000000
   96.08840000    -5.22165000     9.40000000
   96.09870000    -5.22715000     8.50000000
   96.10880000    -5.23265000     7.10000000
   96.11890000    -5.23821000     5.50000000
   96.12910000    -5.24388000     4.30000000
   96.13920000    -5.24949000     2.50000000
   96.14940000    -5.25505000     1.10000000
   96.15940000    -5.26067000    -0.30000000
   96.16960000    -5.26628000    -2.70000000
   96.17970000    -5.27190000    -4.20000000
   96.18980000    -5.27740000    -5.20000000
   96.19980000    -5.28290000    -6.20000000
   96.20980000    -5.28852000    -7.70000000
   96.22000000    -5.29407000    -8.70000000
   96.23030000    -5.29946000   -10.40000000
   96.24050000    -5.30478000   -11.70000000
   96.25070000    -5.31017000   -13.60000000
   96.26070000    -5.31556000   -15.10000000
   96.27080000    -5.32112000   -16.60000000
   96.27690000    -5.32438000   -17.20000000
   96.27890000    -5.32553000   -17.20000000
   96.28090000    -5.32661000   -17.40000000
   96.28290000    -5.32776000   -17.50000000
   96.28490000    -5.32891000   -18.10000000
   96.28700000    -5.33000000   -18.50000000
   96.28890000    -5.33114000   -18.50000000
   96.29080000    -5.33223000   -18.90000000
   96.29420000    -5.33401000   -18.30000000
   96.29630000    -5.33515000   -18.70000000
   96.29840000    -5.33636000   -19.60000000
   96.30050000    -5.33756000   -19.70000000
   96.30250000    -5.33876000   -20.00000000
   96.30460000    -5.33997000   -19.80000000
   96.30660000    -5.34111000   -19.80000000
   96.30880000    -5.34220000   -20.40000000
   96.31090000    -5.34323000   -20.50000000
   96.31300000    -5.34432000   -20.90000000
   96.31500000    -5.34541000   -21.70000000
   96.31710000    -5.34655000   -21.90000000
   96.31930000    -5.34724000   -20.50000000
   96.32120000    -5.34701000   -20.00000000
   96.32290000    -5.34569000   -21.50000000
   96.32420000    -5.34369000   -23.00000000
   96.32530000    -5.34146000   -21.20000000
   96.32650000    -5.33934000   -20.30000000
   96.32770000    -5.33733000   -20.10000000
   96.32900000    -5.33538000   -20.50000000
   96.33030000    -5.33349000   -21.50000000
   96.33160000    -5.33160000   -21.70000000
   96.33280000    -5.32965000   -21.50000000
   96.33400000    -5.32770000   -20.70000000
   96.33530000    -5.32576000   -20.10000000
   96.33650000    -5.32386000   -20.10000000
   96.33780000    -5.32197000   -20.20000000
   96.31750000    -5.30565000   -19.40000000
   96.31560000    -5.30467000   -19.90000000
   96.31370000    -5.30364000   -19.50000000
   96.31190000    -5.30267000   -18.80000000
   96.31000000    -5.30169000   -19.00000000
   96.30820000    -5.30072000   -18.30000000
   96.30630000    -5.29974000   -18.30000000
   96.30450000    -5.29871000   -18.10000000
   96.30260000    -5.29774000   -17.80000000
   96.30070000    -5.29677000   -17.70000000
   96.29880000    -5.29579000   -17.90000000
   96.29700000    -5.29487000   -16.20000000
   96.29510000    -5.29396000   -16.60000000
   96.29320000    -5.29298000   -16.10000000
   96.29140000    -5.29201000   -16.30000000
   96.28950000    -5.29104000   -16.30000000
   96.28770000    -5.29006000   -15.80000000
   96.28580000    -5.28909000   -15.40000000
   96.28400000    -5.28805000   -14.10000000
   96.28210000    -5.28708000   -13.90000000
   96.28020000    -5.28605000   -14.10000000
   96.27840000    -5.28508000   -13.60000000
   96.27650000    -5.28410000   -13.40000000
   96.27470000    -5.28313000   -13.40000000
   96.27280000    -5.28215000   -12.90000000
   96.27100000    -5.28118000   -13.30000000
   96.26910000    -5.28015000   -13.00000000
   96.26720000    -5.27912000   -12.80000000
   96.26540000    -5.27814000   -11.80000000
   96.26350000    -5.27711000   -12.50000000
   96.26170000    -5.27614000   -11.90000000
   96.25980000    -5.27511000   -11.90000000
   96.25790000    -5.27413000   -11.80000000
   96.25610000    -5.27316000   -11.80000000
   96.25420000    -5.27218000   -11.00000000
   96.25230000    -5.27127000   -10.90000000
   96.25040000    -5.27035000   -10.10000000
   96.24850000    -5.26944000    -9.70000000
   96.24660000    -5.26846000   -10.10000000
   96.24480000    -5.26749000    -9.80000000
   96.24290000    -5.26651000    -9.80000000
   96.24110000    -5.26554000    -8.80000000
   96.23920000    -5.26457000    -8.70000000
   96.23740000    -5.26353000    -8.60000000
   96.23550000    -5.26256000    -8.00000000
   96.23360000    -5.26164000    -8.30000000
   96.23170000    -5.26067000    -7.10000000
   96.22990000    -5.25975000    -7.40000000
   96.22800000    -5.25878000    -6.90000000
   96.22620000    -5.25780000    -7.70000000
   96.22430000    -5.25683000    -6.70000000
   96.22240000    -5.25591000    -6.70000000
   96.22050000    -5.25500000    -7.00000000
   96.21340000    -5.26158000    -4.40000000
   96.21260000    -5.26371000    -4.70000000
   96.21170000    -5.26571000    -4.10000000
   96.21070000    -5.26771000    -3.90000000
   96.20980000    -5.26972000    -4.50000000
   96.20890000    -5.27167000    -4.80000000
   96.20800000    -5.27367000    -4.60000000
   96.20700000    -5.27562000    -4.60000000
   96.20870000    -5.27814000    -5.10000000
   96.20770000    -5.28026000    -4.90000000
   96.20670000    -5.28238000    -5.40000000
   96.20580000    -5.28456000    -5.80000000
   96.20490000    -5.28674000    -5.60000000
   96.20400000    -5.28886000    -6.20000000
   96.20310000    -5.29098000    -6.10000000
   96.20220000    -5.29316000    -7.00000000
   96.20130000    -5.29527000    -7.10000000
   96.20040000    -5.29739000    -7.20000000
   96.19940000    -5.29952000    -6.90000000
   96.19840000    -5.30158000    -7.30000000
   96.19750000    -5.30364000    -7.30000000
   96.19660000    -5.30570000    -7.50000000
   96.19560000    -5.30777000    -8.10000000
   96.19460000    -5.30988000    -8.30000000
   96.19360000    -5.31201000    -8.40000000
   96.19270000    -5.31413000    -7.70000000
   96.19180000    -5.31630000    -8.40000000
   96.19090000    -5.31848000    -9.10000000
   96.19000000    -5.32060000    -9.70000000
   96.18900000    -5.32272000    -9.80000000
   96.18800000    -5.32484000    -9.70000000
   96.18710000    -5.32696000    -9.50000000
   96.18620000    -5.32902000    -9.80000000
   96.18520000    -5.33109000   -10.10000000
   96.18430000    -5.33315000   -10.40000000
   96.18340000    -5.33527000   -10.40000000
   96.18250000    -5.33733000   -10.40000000
   96.18170000    -5.33951000   -10.60000000
   96.18080000    -5.34163000   -11.20000000
   96.17990000    -5.34375000   -11.00000000
   96.17900000    -5.34587000   -11.60000000
   96.17810000    -5.34799000   -12.40000000
   96.19060000    -5.36162000   -14.20000000
   96.19260000    -5.36294000   -13.90000000
   96.19460000    -5.36420000   -15.00000000
   96.19650000    -5.36546000   -15.30000000
   96.19850000    -5.36672000   -15.80000000
   96.20050000    -5.36798000   -15.50000000
   96.20240000    -5.36930000   -15.70000000
   96.20430000    -5.37062000   -16.00000000
   96.20620000    -5.37194000   -15.60000000
   96.20820000    -5.37320000   -16.30000000
   96.21010000    -5.37446000   -16.20000000
   96.21210000    -5.37577000   -16.40000000
   96.21410000    -5.37709000   -16.80000000
   96.21600000    -5.37835000   -16.60000000
   96.21800000    -5.37956000   -17.80000000
   96.22000000    -5.38070000   -17.90000000
   96.22190000    -5.38190000   -17.80000000
   96.22390000    -5.38311000   -17.90000000
   96.22590000    -5.38437000   -18.60000000
   96.22780000    -5.38563000   -18.70000000
   96.22980000    -5.38683000   -19.10000000
   96.23170000    -5.38815000   -18.90000000
   96.23360000    -5.38947000   -19.20000000
   96.23550000    -5.39079000   -19.50000000
   96.23750000    -5.39211000   -19.00000000
   96.23940000    -5.39342000   -19.70000000
   96.24130000    -5.39468000   -19.70000000
   96.24330000    -5.39594000   -20.00000000
   96.24520000    -5.39720000   -20.50000000
   96.24720000    -5.39846000   -21.10000000
   96.24920000    -5.39972000   -21.40000000
   96.25110000    -5.40098000   -21.30000000
   96.25300000    -5.40225000   -21.60000000
   96.25490000    -5.40351000   -20.60000000
   96.25690000    -5.40477000   -21.70000000
   96.25880000    -5.40603000   -22.00000000
