  102.85091000     1.60470000    12.80000000
  102.83670000     1.61290000    11.80000000
  102.82260000     1.62100000    11.80000000
  102.80859000     1.62910000    12.00000000
  102.79440000     1.63720000    12.10000000
  102.78031000     1.64530000    12.20000000
  102.76621000     1.65350000    12.30000000
  102.75189000     1.66180000     4.80000000
  102.68969000     1.69810000    12.60000000
  102.67470000     1.70770000    16.00000000
  102.65980000     1.71730000    17.20000000
  102.64490000     1.72700000    19.70000000
  102.62999000     1.73661000    24.50000000
  102.61500000     1.74630000    28.50000000
  102.60010000     1.75590000    29.50000000
  102.58520000     1.76560000    31.30000000
  102.57029000     1.77510000    30.20000000
  102.55520000     1.78420000    30.00000000
  102.54010000     1.79330000    29.10000000
  102.52500000     1.80251000    28.50000000
  102.50979000     1.81160000    25.70000000
  102.49469000     1.82070000    24.00000000
  102.47959000     1.82980000    24.00000000
  102.46491000     1.83940000    26.80000000
  102.45040000     1.84910000    26.70000000
  102.43549000     1.85890000    23.20000000
  102.42031000     1.86860000    25.30000000
  102.40510000     1.87840000    27.20000000
  102.38989000     1.88820000    28.00000000
  102.37460000     1.89789000    28.00000000
  102.35939000     1.90770000    28.20000000
  102.34370000     1.91750000    24.80000000
  102.32780000     1.92740000    25.10000000
  102.31201000     1.93731000    25.00000000
  102.29610000     1.94731000    24.50000000
  102.28031000     1.95731000    22.60000000
  102.26449000     1.96731000    20.70000000
  102.24861000     1.97730000    19.00000000
  102.23279000     1.98730000    17.00000000
  102.21710000     1.99730000    18.00000000
  102.20159000     2.00720000    17.50000000
  102.18610000     2.01710000    17.00000000
  102.14161000     2.04830000    22.50000000
  102.12771000     2.05940000    22.30000000
  102.11389000     2.07040000    24.20000000
  102.10040000     2.08100000    24.10000000
  102.08689000     2.09160000    23.60000000
  102.07341000     2.10220000    21.30000000
  102.05989000     2.11280000    19.00000000
  102.04641000     2.12340000    17.50000000
  102.03290000     2.13400000    16.00000000
  102.01941000     2.14460000    14.20000000
  102.00581000     2.15530000    12.60000000
  101.99230000     2.16590000    11.60000000
  101.97881000     2.17650000    10.50000000
  101.96530000     2.18710000     9.60000000
  101.95181000     2.19770000     8.60000000
  101.93830000     2.20830000    17.50000000
  101.92651000     2.21740000    17.50000000
  101.91461000     2.22660000    15.70000000
  101.90279000     2.23580000    14.10000000
  101.89100000     2.24490000    13.00000000
  101.87910000     2.25410000    12.20000000
  101.86731000     2.26330000    12.10000000
  101.85541000     2.27240000    12.10000000
  101.84359000     2.28160000    12.20000000
  101.83180000     2.29080000    12.30000000
  101.81999000     2.29989000     8.00000000
  101.80731000     2.30800000     8.10000000
  101.79460000     2.31590000     8.60000000
  101.78200000     2.32401000     9.50000000
  101.76930000     2.33190000    11.00000000
  101.75659000     2.33991000    38.60000000
  101.74280000     2.34750000     4.80000000
  101.72759000     2.35490000     2.30000000
  101.71241000     2.36220000     4.20000000
  101.69720000     2.36960000     4.20000000
  101.68199000     2.37690000     4.10000000
  101.66680000     2.38430000     4.10000000
  101.65160000     2.39160000     5.10000000
  101.63600000     2.39940000     4.00000000
  101.62040000     2.40720000     5.00000000
  101.60480000     2.41510000     6.10000000
  101.58909000     2.42289000     7.20000000
  101.57349000     2.43070000     8.10000000
  100.69500000     3.13660000    17.50000000
  100.67951000     3.14420000    16.10000000
  100.66400000     3.15170000    14.30000000
  100.64851000     3.15921000    13.50000000
  100.63310000     3.16680000    13.50000000
  100.61759000     3.17430000    13.30000000
  100.60210000     3.18190000    14.20000000
  100.58659000     3.18940000    15.10000000
  100.57121000     3.19689000    16.00000000
  100.55570000     3.20451000    16.00000000
  100.54021000     3.21200000    16.00000000
  100.52469000     3.21960000    15.80000000
  100.50929000     3.22710000    15.50000000
  100.49500000     3.23610000    29.70000000
  100.48279000     3.24749000    38.10000000
  100.47220000     3.26050000    36.50000000
  100.43910000     3.29780000    23.10000000
  100.42659000     3.30811000    23.20000000
  100.41411000     3.31840000    23.20000000
  100.40160000     3.32871000    23.30000000
  100.38911000     3.33910000    23.30000000
  100.37660000     3.34940000    23.50000000
  100.36409000     3.35970000    23.50000000
  100.35160000     3.37000000    23.80000000
  100.33909000     3.38030000    24.20000000
  100.32660000     3.39060000    24.10000000
  100.31409000     3.40090000    24.00000000
  100.30161000     3.41120000    24.00000000
  100.28910000     3.42160000    23.80000000
  100.27661000     3.43190000    23.60000000
  100.26410000     3.44220000    23.50000000
  100.25161000     3.45250000    23.50000000
  100.23949000     3.46250000    24.70000000
  100.22759000     3.47240000    22.60000000
  100.21580000     3.48220000    19.50000000
  100.20390000     3.49210000    18.30000000
  100.19200000     3.50190000    17.50000000
  100.18021000     3.51179000    17.70000000
  100.16831000     3.52160000    20.00000000
  100.15641000     3.53150000    24.00000000
  100.14450000     3.54130000    25.80000000
  100.13269000     3.55121000    27.70000000
  100.12079000     3.56100000    29.80000000
  100.10900000     3.57090000    31.60000000
  100.09710000     3.58070000    32.50000000
  100.08531000     3.59060000    33.80000000
  100.07360000     3.60060000    34.10000000
  100.06201000     3.61060000    34.00000000
  100.05030000     3.62060000    34.00000000
  100.03860000     3.63060000    33.80000000
  100.02700000     3.64060000    33.70000000
   99.86381000     3.80019000    24.00000000
   99.85121000     3.81120000    16.20000000
   99.83770000     3.82270000    17.00000000
   99.82421000     3.83420000    17.70000000
   99.81070000     3.84570000    18.50000000
   99.79741000     3.85720000    22.10000000
   99.78440000     3.86870000    22.80000000
   99.77141000     3.88010000    23.50000000
   99.75851000     3.89150000    24.30000000
   99.74550000     3.90290000    25.00000000
   99.73251000     3.91430000    25.60000000
   99.71980000     3.92580000    27.10000000
   99.70721000     3.93731000    27.00000000
   99.69450000     3.94880000    26.80000000
   99.68179000     3.96029000    26.60000000
   99.66920000     3.97180000    26.50000000
   99.65649000     3.98330000    26.50000000
   99.64381000     3.99480000    26.20000000
   99.54641000     4.06329000    12.80000000
   99.53159000     4.07160000    14.50000000
   99.51721000     4.08060000    14.00000000
   99.50281000     4.08960000    13.50000000
   99.48830000     4.09859000    13.00000000
   99.47389000     4.10760000    12.50000000
   99.45949000     4.11660000    12.00000000
   99.44500000     4.12560000    11.50000000
   99.43060000     4.13460000    11.00000000
   99.41620000     4.14360000    10.70000000
   99.40179000     4.15260000    10.30000000
   99.38730000     4.16159000    10.00000000
   99.37290000     4.17050000     9.80000000
   99.35839000     4.17950000    10.60000000
   99.34401000     4.18850000    10.50000000
   99.32961000     4.19749000     7.10000000
   99.31520000     4.20650000     6.20000000
   99.30069000     4.21550000     6.60000000
   99.28629000     4.22450000     7.00000000
   99.27191000     4.23350000     7.80000000
   99.25740000     4.24250000     8.60000000
   99.24299000     4.25150000     8.50000000
   99.22859000     4.26050000     8.50000000
   99.21410000     4.26950000     8.30000000
   99.19970000     4.27850000     8.20000000
   99.18530000     4.28751000     7.70000000
   99.17081000     4.29650000     6.00000000
   99.15641000     4.30550000     4.00000000
   99.14200000     4.31450000     1.80000000
   99.12749000     4.32341000     0.80000000
   99.09871000     4.34140000    -0.80000000
   99.08431000     4.35040000    -1.80000000
   99.06979000     4.35940000    -2.80000000
   99.05570000     4.36810000     4.10000000
   99.04279000     4.37570000     2.60000000
   99.03000000     4.38330000     1.20000000
   99.01710000     4.39090000     1.10000000
   99.00420000     4.39840000     1.00000000
   98.99110000     4.40550000     0.20000000
   98.97790000     4.41250000     1.30000000
   98.96469000     4.41940000     3.00000000
   98.95151000     4.42641000     4.50000000
   98.93841000     4.43349000     6.00000000
   98.92520000     4.44050000     7.80000000
   98.91211000     4.44750000     8.60000000
   98.89890000     4.45450000     9.60000000
   98.88569000     4.46150000     9.70000000
   98.87260000     4.46850000    10.00000000
   98.85939000     4.47560000    10.00000000
   98.84629000     4.48260000    10.10000000
   98.83311000     4.48960000    10.00000000
   98.81999000     4.49660000     8.50000000
   98.80650000     4.50380000     8.50000000
   98.79310000     4.51090000     8.30000000
   98.77961000     4.51800000     8.20000000
   98.76621000     4.52520000     8.10000000
   98.75281000     4.53230000     9.00000000
   98.73930000     4.53950000    10.00000000
   98.72589000     4.54660000    11.00000000
   98.71249000     4.55380000    11.70000000
   98.69900000     4.56090000    12.10000000
   98.68560000     4.56800000    12.50000000
   98.67220000     4.57520000    12.80000000
   98.65869000     4.58230000    13.20000000
   98.64531000     4.58950000    12.80000000
   98.63191000     4.59660000    12.50000000
   98.61840000     4.60380000    12.10000000
   98.60500000     4.61090000    11.80000000
   98.59159000     4.61800000    11.70000000
   98.57810000     4.62520000    11.60000000
   98.56470000     4.63230000    11.50000000
   98.55119000     4.63949000    11.10000000
   98.53770000     4.64660000    11.00000000
   98.52419000     4.65380000    11.00000000
   98.51079000     4.66090000    10.80000000
   98.49700000     4.66820000     4.10000000
   98.48229000     4.67580000     4.20000000
   98.46750000     4.68350000     4.30000000
   98.45279000     4.69120000     4.50000000
   98.43799000     4.69890000     4.60000000
   98.42331000     4.70659000     8.70000000
   98.40941000     4.71380000     8.50000000
   98.39551000     4.72110000     8.00000000
   98.38160000     4.72830000     7.70000000
   98.32750000     4.75910000     8.80000000
   98.31501000     4.76830000     6.70000000
   98.30200000     4.77830000     6.80000000
   98.28910000     4.78841000     6.80000000
   98.27619000     4.79850000     7.00000000
   98.26321000     4.80850000     6.80000000
   98.25030000     4.81860000     6.60000000
   98.23729000     4.82870000     4.50000000
   98.22400000     4.83930000     4.20000000
   98.21060000     4.84980000     4.10000000
   98.19731000     4.86050000     4.60000000
   98.13430000     4.91900000     4.00000000
   98.12210000     4.93110000     3.20000000
   98.11000000     4.94330000     4.60000000
   98.05069000     5.00420000     8.60000000
   98.03820000     5.01670000     3.30000000
   98.02539000     5.02950000     3.00000000
   98.01260000     5.04230000     2.50000000
   97.99989000     5.05510000     2.00000000
   97.98710000     5.06780000     1.80000000
   97.97431000     5.08060000     1.60000000
   97.96160000     5.09360000     3.00000000
   97.94909000     5.10681000     2.70000000
   97.93660000     5.12010000     2.50000000
   97.92409000     5.13340000     2.20000000
   97.91160000     5.14660000     2.30000000
   97.89909000     5.15960000     2.50000000
   97.88661000     5.17250000     2.50000000
   97.87410000     5.18550000     2.50000000
   97.86139000     5.19880000     0.20000000
   97.84849000     5.21270000     0.30000000
   97.79630000     5.33470000     2.30000000
   97.78729000     5.34530000     3.10000000
   97.77830000     5.35590000     4.00000000
   97.76930000     5.36650000     4.70000000
   97.76020000     5.37710000     5.50000000
   97.75120000     5.38770000     6.00000000
   97.74219000     5.39840000     6.50000000
   97.73320000     5.40900000     7.00000000
   97.72411000     5.41960000     7.50000000
   97.71510000     5.43020000     8.00000000
   97.70610000     5.44080000     8.50000000
   97.69700000     5.45140000     8.70000000
   97.68799000     5.46210000     9.00000000
   97.67901000     5.47270000     9.30000000
   97.67000000     5.48330000    11.50000000
   97.66130000     5.49380000    11.50000000
   97.65260000     5.50430000    11.70000000
   97.64390000     5.51480000    11.80000000
   97.55900000     5.59200000    22.50000000
   97.54919000     5.59960000    22.20000000
   97.53940000     5.60720000    22.10000000
   97.52970000     5.61479000    22.00000000
   97.51991000     5.62241000    21.80000000
   97.51009000     5.63000000    21.20000000
   97.50030000     5.63760000    20.60000000
   97.36281000     5.72590000    -9.70000000
   97.35121000     5.73300000   -11.30000000
   97.33970000     5.74020000   -12.00000000
   97.32810000     5.74740000   -13.10000000
   97.31660000     5.75450000   -14.20000000
   97.30500000     5.76170000   -14.80000000
   97.29349000     5.76890000   -15.50000000
   97.28189000     5.77610000   -16.00000000
   97.27041000     5.78320000   -16.60000000
   97.25890000     5.79040000   -17.00000000
   97.24730000     5.79760000   -17.50000000
   97.22420000     5.81190000   -14.20000000
   97.21271000     5.81910000   -14.30000000
   97.20109000     5.82630000   -14.50000000
   97.18960000     5.83340000   -14.60000000
   97.17810000     5.84060000   -14.70000000
   97.16650000     5.84780000   -15.10000000
   97.15499000     5.85500000   -17.70000000
   97.14300000     5.86120000   -18.00000000
   97.13099000     5.86750000   -18.50000000
   97.11909000     5.87380000   -18.50000000
   97.10711000     5.88010000   -18.50000000
   97.09520000     5.88640000   -18.50000000
   97.08320000     5.89259000   -18.50000000
   97.07129000     5.89890000   -18.50000000
   97.05931000     5.90520000   -18.50000000
   97.04730000     5.91150000   -18.50000000
   97.03540000     5.91780000   -18.50000000
   97.02341000     5.92400000   -18.60000000
   97.01151000     5.93030000   -18.60000000
   96.99950000     5.93660000   -18.50000000
   96.98749000     5.94290000   -20.00000000
   96.97520000     5.94930000   -19.80000000
   96.96299000     5.95570000   -19.70000000
   96.95070000     5.96210000   -19.30000000
   96.93841000     5.96851000   -19.00000000
   96.92620000     5.97490000   -18.80000000
   96.91389000     5.98130000   -18.70000000
   96.90160000     5.98770000   -18.60000000
   96.88930000     5.99410000   -18.50000000
   96.87710000     6.00050000   -18.50000000
   96.86481000     6.00690000   -18.70000000
   96.85249000     6.01330000   -18.80000000
   96.84031000     6.01980000   -19.00000000
   96.82800000     6.02619000   -18.00000000
   96.81570000     6.03260000   -17.20000000
   96.80350000     6.03900000   -16.80000000
   96.79121000     6.04540000   -16.50000000
   96.77889000     6.05180000   -15.60000000
   96.76671000     6.05820000   -14.70000000
   96.75439000     6.06460000   -14.80000000
   96.74210000     6.07100000   -15.00000000
   96.72990000     6.07739000   -14.60000000
   96.71780000     6.08370000   -12.70000000
   96.70579000     6.09000000   -12.30000000
   96.69380000     6.09621000   -12.00000000
   96.68179000     6.10250000   -10.50000000
   96.66989000     6.10870000    -9.20000000
   96.65791000     6.11500000    -8.30000000
   96.64590000     6.12120000    -7.50000000
   96.63391000     6.12750000    -6.60000000
   96.62190000     6.13370000    -5.70000000
   96.61000000     6.14000000    -5.30000000
   96.59799000     6.14620000    -5.00000000
   96.58600000     6.15250000    -5.00000000
   96.57399000     6.15870000    -4.70000000
   96.56220000     6.16500000    -4.50000000
   96.55041000     6.17140000    -5.30000000
   96.53870000     6.17770000    -6.00000000
   96.52689000     6.18400000    -6.60000000
   96.51510000     6.19041000    -7.00000000
   96.50331000     6.19670000    -7.30000000
   96.49160000     6.20310000    -7.70000000
   96.47981000     6.20940000    -8.00000000
   96.46800000     6.21571000    -8.20000000
   96.45629000     6.22210000    -8.10000000
   96.44450000     6.22860000    -7.80000000
   96.43280000     6.23500000    -7.50000000
   96.42100000     6.24150000    -6.00000000
   96.40949000     6.24790000     1.20000000
   96.39890000     6.25410000     1.60000000
   96.38839000     6.26030000     2.00000000
   96.37780000     6.26650000     3.80000000
   96.36720000     6.27270000     5.70000000
   96.35669000     6.27890000    10.00000000
   96.34610000     6.28510000    14.30000000
   96.33550000     6.29130000    17.10000000
   96.32499000     6.29740000    20.00000000
   96.31440000     6.30360000    22.30000000
   96.30380000     6.30980000    24.70000000
   96.29321000     6.31600000    26.00000000
   96.28270000     6.32220000    27.50000000
   96.27210000     6.32840000    28.70000000
   96.26151000     6.33461000    30.10000000
   96.25100000     6.34080000    31.50000000
   96.24041000     6.34699000    32.80000000
   96.22959000     6.35330000    31.60000000
   96.21869000     6.35950000    32.00000000
   96.20790000     6.36581000    31.50000000
   96.19700000     6.37200000    30.80000000
   96.18610000     6.37830000    29.60000000
   96.17529000     6.38450000    28.50000000
   96.16439000     6.39080000    27.50000000
   96.15360000     6.39699000    26.80000000
   96.14270000     6.40330000    27.20000000
   96.13180000     6.40950000    29.00000000
   96.12101000     6.41581000    31.50000000
   96.11019000     6.42190000    34.50000000
   96.09949000     6.42800000    36.30000000
   96.08881000     6.43409000    38.20000000
   96.07810000     6.44020000    41.00000000
   96.06729000     6.44630000    40.00000000
   96.04591000     6.45860000    38.70000000
   96.03520000     6.46469000    38.60000000
   96.02450000     6.47080000    36.50000000
   96.01379000     6.47690000    36.00000000
   96.00309000     6.48300000    35.60000000
   95.99260000     6.48941000    38.00000000
   95.98240000     6.49630000    37.50000000
   95.97220000     6.50330000    37.20000000
   95.96199000     6.51020000    36.80000000
   95.95181000     6.51720000    36.50000000
   95.94161000     6.52411000    36.60000000
   95.93149000     6.53110000    37.00000000
   95.92131000     6.53800000    37.10000000
   95.91110000     6.54490000    37.50000000
   95.90090000     6.55190000    37.70000000
   95.89070000     6.55880000    39.10000000
   95.88021000     6.56540000    37.60000000
   95.86940000     6.57160000    39.10000000
   95.85861000     6.57790000    41.30000000
   95.84790000     6.58410000    43.50000000
   95.83709000     6.59040000    45.60000000
   95.82560000     6.59610000    43.10000000
   95.81390000     6.60160000    45.50000000
   95.80219000     6.60720000    50.20000000
   95.79051000     6.61270000    55.00000000
   95.77881000     6.61831000    57.50000000
   95.76721000     6.62380000    59.70000000
   95.75550000     6.62940000    64.50000000
   95.74380000     6.63500000    69.50000000
   95.73209000     6.64050000    70.20000000
   95.72039000     6.64610000    70.10000000
   95.70871000     6.65160000    69.00000000
   95.69700000     6.65720000    66.00000000
   95.68530000     6.66270000    62.00000000
   95.67359000     6.66831000    56.00000000
   95.66211000     6.67380000    53.20000000
   95.65060000     6.67930000    49.20000000
   95.63920000     6.68481000    44.60000000
   95.62780000     6.69020000    40.10000000
   95.61640000     6.69570000    37.00000000
   95.60500000     6.70120000    36.00000000
   95.59351000     6.70670000    33.50000000
   95.58211000     6.71220000    30.80000000
   95.57071000     6.71760000    28.70000000
   95.55931000     6.72309000    26.60000000
   95.54791000     6.72860000    25.00000000
   95.53640000     6.73410000    23.50000000
   95.52500000     6.73950000    21.80000000
   95.51360000     6.74500000    20.20000000
   95.50220000     6.75050000    19.10000000
   95.49080000     6.75601000    16.10000000
   95.47931000     6.76150000    15.50000000
   95.46791000     6.76690000    15.00000000
   95.45651000     6.77240000    14.50000000
   95.44511000     6.77790000    14.00000000
   95.29849000     6.85021000     4.00000000
   95.28701000     6.85580000     4.00000000
   95.27561000     6.86199000     3.80000000
   95.26410000     6.86830000     4.70000000
   95.25270000     6.87450000     5.50000000
   95.24121000     6.88081000     6.70000000
   95.23001000     6.88650000    10.30000000
   95.21900000     6.89180000    11.50000000
   95.20801000     6.89720000    11.50000000
   95.19700000     6.90250000    11.30000000
   95.18599000     6.90780000    11.20000000
   95.17490000     6.91370000     9.70000000
   95.16361000     6.91990000     9.10000000
   95.15240000     6.92620000     8.50000000
   95.14111000     6.93240000     8.00000000
   95.12991000     6.93870000     7.60000000
   95.11870000     6.94490000     4.00000000
   95.10750000     6.95120000     0.50000000
   95.09629000     6.95750000     0.30000000
   95.08520000     6.96370000     0.10000000
   95.07399000     6.97000000     0.50000000
   95.06281000     6.97620000     1.00000000
   95.05161000     6.98240000     0.60000000
   95.04040000     6.98870000     0.30000000
   95.00681000     7.00750000    -0.30000000
   94.99569000     7.01370000    -0.60000000
   94.98440000     7.02000000    -0.30000000
   94.96210000     7.03250000     0.60000000
   94.95090000     7.03870000     1.50000000
   94.93969000     7.04501000     2.30000000
   94.92851000     7.05120000     3.10000000
   94.91730000     7.05739000     4.00000000
   94.90621000     7.06370000     5.00000000
   94.89500000     7.07000000     3.60000000
   94.88341000     7.07590000     5.70000000
   94.87179000     7.08190000     8.00000000
   94.86019000     7.08790000    10.10000000
   94.84860000     7.09389000    12.50000000
   94.83700000     7.09980000    14.70000000
   94.82541000     7.10580000     8.70000000
   94.81381000     7.11180000    16.50000000
   94.80219000     7.11780000    18.20000000
   94.79060000     7.12380000    20.00000000
   94.77881000     7.12970000    19.10000000
   94.76690000     7.13569000    20.00000000
   94.75500000     7.14160000    20.30000000
   94.74299000     7.14760000    20.70000000
   94.73109000     7.15350000    21.00000000
   94.71919000     7.15950000    21.50000000
   94.70729000     7.16540000    21.80000000
   94.69611000     7.17159000    26.30000000
   94.62301000     7.19600000    34.00000000
   94.61080000     7.19910000    34.00000000
   94.59871000     7.20219000    31.00000000
   94.58650000     7.20540000    27.00000000
   94.57399000     7.20840000    18.60000000
   94.56120000     7.21150000    14.60000000
   94.54841000     7.21460000    10.60000000
   94.53559000     7.21760000     6.60000000
   94.52280000     7.22070000     2.60000000
   94.51009000     7.22370000    -1.10000000
   94.49769000     7.22689000    -1.20000000
   94.48571000     7.23010000    -5.20000000
   94.47370000     7.23339000    -5.30000000
   94.46160000     7.23660000    -9.10000000
   94.44900000     7.24040000    -9.60000000
   94.43630000     7.24410000    -9.70000000
   94.42370000     7.24780000    -9.80000000
   94.41100000     7.25161000   -10.00000000
   94.39840000     7.25530000   -10.00000000
   94.38580000     7.25910000   -10.10000000
   94.33270000     7.29690000   -12.00000000
   94.32280000     7.30579000   -12.20000000
   94.31290000     7.31470000   -12.50000000
   94.30300000     7.32360000   -12.60000000
   94.29310000     7.33250000   -10.80000000
   94.28320000     7.34140000    -9.10000000
   94.27341000     7.35030000    -7.30000000
   94.26351000     7.35920000    -4.60000000
   94.25359000     7.36810000    -1.80000000
   94.23379000     7.38581000     4.50000000
   94.22389000     7.39470000     8.60000000
   94.21399000     7.40349000    12.60000000
   94.20409000     7.41210000    15.80000000
   94.19411000     7.42080000    19.10000000
   94.15321000     7.45351000    42.50000000
   94.14250000     7.46080000    53.20000000
   94.13169000     7.46810000    66.80000000
   94.12090000     7.47540000    80.50000000
   94.11019000     7.48270000    86.60000000
   94.09940000     7.48990000    87.00000000
   94.08859000     7.49720000    86.80000000
   94.07791000     7.50450000    78.80000000
   94.06710000     7.51179000    67.80000000
   94.05620000     7.51920000    54.70000000
   94.04521000     7.52670000    42.80000000
   94.03431000     7.53420000    30.80000000
   93.92409000     7.61210000   -23.00000000
   93.91620000     7.62200000   -25.60000000
   93.90821000     7.63200000   -28.30000000
   93.90020000     7.64190000   -32.50000000
   93.89220000     7.65180000   -36.70000000
   93.88430000     7.66180000   -40.80000000
   93.87629000     7.67170000   -43.00000000
   93.86831000     7.68160000   -45.10000000
   93.86019000     7.69140000   -46.50000000
   93.85199000     7.70120000   -46.60000000
   93.84390000     7.71110000   -46.80000000
   93.83570000     7.72090000   -44.60000000
   93.82760000     7.73071000   -42.50000000
   93.81940000     7.74050000   -39.70000000
   93.81131000     7.75030000   -37.00000000
   93.80311000     7.76010000   -35.20000000
   93.83300000     7.78251000   -46.20000000
   93.84370000     7.78420000   -46.80000000
   93.85441000     7.78600000   -47.30000000
   93.86509000     7.78770000   -48.00000000
   93.87571000     7.78940000   -48.50000000
   93.88639000     7.79110000   -48.50000000
   93.89709000     7.79290000   -47.50000000
   93.90780000     7.79460000   -45.60000000
   93.91839000     7.79549000   -39.00000000
   93.92979000     7.79650000   -33.00000000
   93.94119000     7.79750000   -25.20000000
   93.95259000     7.79841000   -14.30000000
   93.96399000     7.79940000    -5.50000000
   93.97539000     7.80040000     2.10000000
   93.98679000     7.80140000     7.00000000
   93.99819000     7.80230000    11.00000000
   94.00959000     7.80330000    12.80000000
   94.02099000     7.80429000    15.70000000
   94.03239000     7.80530000    17.00000000
   94.04371000     7.80620000    18.30000000
   94.05511000     7.80710000    19.70000000
   94.06651000     7.80781000    22.60000000
   94.07791000     7.80850000    23.50000000
   94.08931000     7.80930000    24.50000000
   94.10071000     7.81000000    24.50000000
   94.11211000     7.81070000    24.50000000
   94.12351000     7.81150000    24.50000000
   94.13491000     7.81220000    24.00000000
   94.14631000     7.81290000    23.50000000
   94.15771000     7.81371000    22.50000000
   94.16911000     7.81440000    20.50000000
   94.18051000     7.81510000    18.50000000
   94.19189000     7.81590000    17.50000000
   94.20329000     7.81660000    16.80000000
   94.21480000     7.81770000    16.80000000
   94.22631000     7.81820000    18.20000000
   94.23810000     7.81820000    19.20000000
   94.24980000     7.81810000    20.70000000
   94.26151000     7.81800000    22.20000000
   94.27330000     7.81790000    23.20000000
   94.28501000     7.81781000    23.20000000
   94.29671000     7.81770000    23.20000000
   94.30850000     7.81770000    21.20000000
   94.32021000     7.81760000    19.70000000
   94.33189000     7.81750000    18.20000000
   94.34370000     7.81740000    15.30000000
   94.35541000     7.81730000    12.30000000
   94.36709000     7.81720000     9.50000000
   94.37891000     7.81710000     7.50000000
   94.39061000     7.81710000     6.50000000
   94.40229000     7.81700000     5.50000000
   94.41411000     7.81690000     5.50000000
   94.42579000     7.81680000     5.50000000
   94.43749000     7.81670000     6.50000000
   94.44931000     7.81660000     7.60000000
   94.46110000     7.81609000     9.70000000
   94.47300000     7.81549000    11.00000000
   94.48501000     7.81500000    11.60000000
   94.49680000     7.81500000    12.80000000
   94.50859000     7.81500000    15.70000000
   94.52041000     7.81500000    18.70000000
   94.53220000     7.81500000    21.60000000
   94.54399000     7.81500000    24.60000000
   94.55580000     7.81500000    27.50000000
   94.56760000     7.81500000    29.50000000
   94.57911000     7.81450000    28.20000000
   94.59059000     7.81400000    28.70000000
   94.60199000     7.81350000    28.70000000
   94.61339000     7.81260000    28.10000000
   94.62479000     7.81140000    28.10000000
   94.63611000     7.81030000    27.60000000
   94.64740000     7.80910000    27.20000000
   94.65880000     7.80790000    27.20000000
   94.67009000     7.80680000    28.70000000
   94.68140000     7.80560000    30.20000000
   94.69280000     7.80440000    32.20000000
   94.70409000     7.80330000    34.20000000
   94.71541000     7.80210000    35.20000000
   94.72681000     7.80090000    36.20000000
   94.73810000     7.79980000    36.20000000
   94.74939000     7.79860000    36.30000000
   94.76079000     7.79740000    35.30000000
   94.77210000     7.79630000    34.50000000
   94.78340000     7.79510000    33.50000000
   94.79480000     7.79390000    32.50000000
   94.80611000     7.79280000    30.50000000
   94.81740000     7.79160000    28.60000000
   94.82880000     7.79040000    26.10000000
   94.84020000     7.78920000    24.60000000
   94.85171000     7.78800000    23.20000000
   94.86320000     7.78690000    21.70000000
   94.84501000     7.76410000    29.50000000
   94.83389000     7.75830000    31.60000000
   94.82271000     7.75251000    34.60000000
   94.81159000     7.74661000    38.30000000
   94.80060000     7.74060000    42.50000000
   94.78960000     7.73460000    46.50000000
   94.77861000     7.72860000    48.60000000
   94.76760000     7.72260000    47.80000000
   94.75659000     7.71659000    41.50000000
   94.74460000     7.71180000    40.50000000
   94.73251000     7.70700000    39.10000000
   94.72050000     7.70210000    37.80000000
   94.70840000     7.69730000    37.50000000
   94.69639000     7.69249000    37.00000000
   94.68430000     7.68760000    34.70000000
   94.67231000     7.68280000    32.30000000
   94.66019000     7.67800000    28.50000000
   94.64820000     7.67310000    24.70000000
   94.63611000     7.66831000    21.30000000
   94.62410000     7.66350000    18.00000000
   94.61200000     7.65870000    16.60000000
   94.59999000     7.65380000    15.30000000
   94.58789000     7.64900000    13.50000000
   94.57591000     7.64421000    11.60000000
   94.56381000     7.63930000     9.70000000
   94.55180000     7.63450000     8.00000000
   94.53970000     7.62970000     7.00000000
   94.52770000     7.62479000     7.10000000
   94.51560000     7.62000000     8.70000000
   94.50359000     7.61520000    10.30000000
   94.49160000     7.61040000    12.50000000
   94.47951000     7.60550000    14.50000000
   94.46750000     7.60070000    16.00000000
   94.45540000     7.59590000    19.60000000
   94.44330000     7.59100000    22.20000000
   94.43129000     7.58620000    24.70000000
   94.41931000     7.58140000    27.30000000
   94.40721000     7.57651000    30.00000000
   94.39520000     7.57170000    30.80000000
   94.34501000     7.62180000    40.60000000
   94.33990000     7.63290000    42.80000000
   94.33489000     7.64390000    45.00000000
   94.33000000     7.65500000    44.70000000
   94.32471000     7.66690000    43.50000000
   94.31949000     7.67891000    40.20000000
   94.31429000     7.69090000    37.00000000
   94.31000000     7.70249000    40.20000000
   94.30570000     7.71400000    35.20000000
   94.30100000     7.72570000    33.50000000
   94.29630000     7.73740000    31.70000000
   94.29160000     7.74910000    29.00000000
   94.28690000     7.76080000    26.20000000
   94.28220000     7.77260000    23.00000000
   94.27291000     7.80820000    24.00000000
   94.27080000     7.82019000    23.20000000
   94.26899000     7.83240000    24.70000000
   94.26730000     7.84480000    24.00000000
   94.26560000     7.85710000    23.10000000
   94.26399000     7.86950000    22.30000000
   94.26229000     7.88190000    21.50000000
   94.26060000     7.89430000    21.70000000
   94.25901000     7.90671000    22.00000000
   94.25831000     7.91760000    31.30000000
   94.25709000     7.92909000    22.00000000
   94.25520000     7.94160000    21.60000000
   94.25331000     7.95410000    21.30000000
   94.25139000     7.96660000    18.80000000
   94.24939000     7.97911000    16.30000000
   94.24750000     7.99130000    13.00000000
   94.24541000     8.00310000    10.50000000
   94.29530000     8.02290000     8.00000000
   94.30650000     8.02330000    18.10000000
   94.31840000     8.02350000    20.50000000
   94.33050000     8.02370000    23.00000000
   94.34251000     8.02380000    25.50000000
   94.35449000     8.02400000    28.00000000
   94.36650000     8.02410000    30.50000000
   94.37860000     8.02430000    33.80000000
   94.39061000     8.02450000    37.30000000
   94.40260000     8.02460000    38.70000000
   94.41461000     8.02480000    40.20000000
   94.42659000     8.02501000    41.00000000
   94.43841000     8.02561000    40.70000000
   94.45020000     8.02630000    39.70000000
   94.46171000     8.02640000    35.50000000
   94.47280000     8.02610000    33.20000000
   94.48401000     8.02580000    31.00000000
   94.49519000     8.02540000    28.70000000
   94.50631000     8.02510000    26.50000000
   94.51749000     8.02480000    23.60000000
   94.52870000     8.02441000    20.70000000
   94.53979000     8.02410000    17.70000000
   94.55100000     8.02380000    16.70000000
   94.56220000     8.02340000    15.70000000
   94.57330000     8.02290000    14.30000000
   94.58431000     8.02240000    13.80000000
   94.59540000     8.02180000    13.80000000
   94.60650000     8.02120000    14.00000000
   94.61759000     8.02070000    14.50000000
   94.62871000     8.02010000    17.30000000
   94.63981000     8.01950000    21.30000000
   94.65079000     8.01900000    26.20000000
   94.66191000     8.01840000    31.20000000
   94.67300000     8.01780000    35.10000000
   94.68410000     8.01730000    39.10000000
   94.69520000     8.01670000    41.60000000
   94.70620000     8.01610000    42.10000000
   94.71730000     8.01559000    40.10000000
   94.72840000     8.01501000    37.20000000
   94.73949000     8.01441000    34.20000000
   94.75050000     8.01390000    31.30000000
   94.76160000     8.01330000    27.00000000
   94.77269000     8.01250000    22.60000000
   94.78381000     8.01180000    19.20000000
   94.79490000     8.01110000    15.80000000
   94.80611000     8.01031000    14.30000000
   94.81720000     8.00960000    12.80000000
   94.82830000     8.00880000    12.50000000
   94.83940000     8.00810000    12.20000000
   94.85049000     8.00740000    12.00000000
   94.86161000     8.00660000    12.00000000
   94.87301000     8.00600000    16.10000000
   94.88491000     8.00430000    16.10000000
   94.89681000     8.00270000    17.10000000
   94.90869000     8.00100000    18.20000000
   94.92059000     7.99940000    17.20000000
   94.93249000     7.99780000    16.30000000
   94.94439000     7.99610000    14.70000000
   94.95620000     7.99450000    13.20000000
   94.96811000     7.99280000    11.60000000
   94.98001000     7.99120000    10.00000000
   94.99191000     7.98960000     9.00000000
   95.00381000     7.98791000     7.70000000
   95.01560000     7.98630000     4.00000000
   95.02689000     7.98480000     3.00000000
   95.03829000     7.98330000     2.30000000
   95.04969000     7.98150000     1.30000000
   95.06109000     7.97980000    -0.60000000
   95.07249000     7.97800000    -3.00000000
   95.08389000     7.97630000    -5.50000000
   95.09529000     7.97499000    -7.60000000
   95.10661000     7.97360000   -10.00000000
   95.11801000     7.97230000   -12.10000000
   95.12930000     7.97090000   -14.10000000
   95.14070000     7.96950000   -16.00000000
   95.15210000     7.96820000   -17.50000000
   95.16350000     7.96680000   -19.00000000
   95.17481000     7.96540000   -19.50000000
   95.18619000     7.96410000   -19.80000000
   95.19750000     7.96270000   -19.80000000
   95.20890000     7.96140000   -20.50000000
   95.22011000     7.96029000   -20.00000000
   95.23140000     7.95920000   -19.50000000
   95.24260000     7.95810000   -19.00000000
   95.25389000     7.95700000   -18.30000000
   95.26510000     7.95590000   -17.30000000
   95.27630000     7.95480000   -16.30000000
   95.28759000     7.95370000   -15.80000000
   95.29880000     7.95261000   -15.80000000
   95.31009000     7.95150000   -15.70000000
   95.32129000     7.95040000   -16.20000000
   95.33250000     7.94930000   -16.50000000
   95.34379000     7.94820000   -16.60000000
   95.35500000     7.94710000   -16.50000000
   95.36631000     7.94600000   -16.10000000
   95.37749000     7.94490000   -15.10000000
   95.38870000     7.94379000   -14.10000000
   95.40001000     7.94270000   -14.00000000
   95.41119000     7.94160000   -14.00000000
   95.42250000     7.94050000   -12.50000000
   95.43371000     7.93940000   -10.80000000
   95.44500000     7.93830000   -15.70000000
   95.45510000     7.93700000   -14.80000000
   95.46530000     7.93570000   -13.00000000
   95.47539000     7.93439000   -11.20000000
   95.48560000     7.93310000   -10.50000000
   95.49580000     7.93180000    -9.70000000
   95.50590000     7.93050000    -8.70000000
   95.51540000     7.92970000    -5.00000000
   95.52611000     7.92849000    -4.00000000
   95.53679000     7.92731000    -3.00000000
   95.54741000     7.92600000    -3.00000000
   95.55811000     7.92480000    -3.00000000
   95.56871000     7.92360000    -2.00000000
   95.57941000     7.92240000    -1.00000000
   95.59001000     7.92110000     0.80000000
   95.60071000     7.91990000     2.80000000
   95.61139000     7.91870000     3.80000000
   95.62201000     7.91750000     5.00000000
   95.63269000     7.91620000     6.60000000
   95.64339000     7.91500000     8.50000000
   95.65399000     7.91379000    11.10000000
   95.66480000     7.91290000    14.80000000
   95.67559000     7.91230000    18.70000000
   95.68649000     7.91170000    22.70000000
   95.69731000     7.91100000    26.60000000
   95.70810000     7.91040000    30.60000000
   95.71891000     7.90980000    34.00000000
   95.72981000     7.90920000    37.50000000
   95.74060000     7.90849000    39.50000000
   95.75161000     7.90789000    42.50000000
   95.76260000     7.90729000    44.50000000
   95.77361000     7.90671000    45.00000000
   95.78459000     7.90611000    45.50000000
   95.79560000     7.90551000    46.00000000
   95.80661000     7.90500000    46.50000000
   95.81760000     7.90440000    47.50000000
   95.82860000     7.90379000    48.50000000
   95.83970000     7.90319000    49.50000000
   95.85071000     7.90259000    51.50000000
   95.86170000     7.90201000    51.50000000
   95.87279000     7.90141000    50.50000000
   95.88391000     7.90100000    49.00000000
   95.89500000     7.90050000    46.60000000
   95.90610000     7.90000000    44.10000000
   95.91750000     7.89960000    44.30000000
   95.92901000     7.89920000    42.30000000
   95.94050000     7.89880000    41.50000000
   95.95201000     7.89840000    40.50000000
   95.96349000     7.89800000    40.50000000
   95.97500000     7.89760000    40.50000000
   95.98649000     7.89729000    41.00000000
   95.99800000     7.89690000    41.50000000
   96.00951000     7.89680000    41.20000000
   96.02069000     7.89710000    41.20000000
   96.03200000     7.89750000    38.70000000
   96.04329000     7.89789000    36.20000000
   96.05461000     7.89820000    34.20000000
   96.06579000     7.89860000    33.00000000
   96.07710000     7.89900000    31.60000000
   96.08840000     7.89930000    30.30000000
   96.09971000     7.89970000    28.80000000
   96.11089000     7.90010000    27.30000000
   96.12220000     7.90040000    26.80000000
   96.13350000     7.90081000    26.30000000
   96.14481000     7.90120000    27.20000000
   96.15599000     7.90150000    28.20000000
   96.16739000     7.90190000    31.10000000
   96.17871000     7.90230000    33.60000000
   96.19011000     7.90259000    34.50000000
   96.20140000     7.90300000    35.50000000
   96.21280000     7.90340000    35.50000000
   96.22420000     7.90370000    35.50000000
   96.23551000     7.90410000    32.10000000
   96.24691000     7.90450000    28.60000000
   96.25820000     7.90480000    25.60000000
   96.26960000     7.90520000    22.70000000
   96.28089000     7.90560000    20.70000000
   96.29229000     7.90590000    18.70000000
   96.30361000     7.90630000    17.70000000
   96.31501000     7.90671000    16.70000000
   96.32630000     7.90700000    14.70000000
   96.33770000     7.90740000    12.80000000
   96.34910000     7.90780000    10.30000000
   96.36039000     7.90810000     7.80000000
   96.37190000     7.90830000     7.70000000
   96.38341000     7.90830000     6.70000000
   96.39490000     7.90830000     4.70000000
   96.40641000     7.90830000     2.70000000
   96.41831000     7.90820000     7.70000000
   96.43099000     7.90789000     6.70000000
   96.44361000     7.90770000     5.30000000
   96.45620000     7.90740000     3.80000000
   96.46880000     7.90720000     3.80000000
   96.48151000     7.90690000     3.80000000
   96.49410000     7.90671000     2.80000000
   96.51871000     7.90660000     1.00000000
   96.53100000     7.90660000     2.00000000
   96.54321000     7.90660000     3.00000000
   96.55550000     7.90660000     4.00000000
   96.56779000     7.90660000     4.00000000
   96.58000000     7.90660000     4.00000000
   96.59270000     7.90660000     8.60000000
   96.60569000     7.90660000     9.60000000
   96.61759000     7.90750000     1.60000000
   96.62930000     7.90860000     0.60000000
   96.64100000     7.90970000    -0.10000000
   96.65260000     7.91081000     1.60000000
   96.66430000     7.91190000     3.50000000
   96.67601000     7.91310000     5.50000000
   96.68830000     7.91379000    10.00000000
   96.92409000     7.92950000    -0.10000000
   96.93641000     7.93010000     1.10000000
   96.94870000     7.93070000     2.50000000
   96.96099000     7.93130000     4.00000000
   96.97339000     7.93190000     5.50000000
   96.98571000     7.93250000     6.00000000
   96.99800000     7.93310000     6.50000000
   97.01029000     7.93370000     6.00000000
   97.02260000     7.93430000     5.50000000
   97.03501000     7.93500000     5.00000000
   97.04680000     7.93590000     7.00000000
   97.05870000     7.93690000     6.50000000
   97.07049000     7.93780000     5.80000000
   97.08239000     7.93880000     4.80000000
   97.09660000     7.98900000     4.80000000
   97.09660000     8.00220000     5.50000000
   97.09660000     8.01540000     6.20000000
   97.09671000     8.02840000     6.80000000
   97.09701000     8.04120000     6.00000000
   97.09729000     8.05390000     4.70000000
   97.09760000     8.06670000     3.50000000
   97.09779000     8.07950000     5.50000000
   97.09810000     8.09230000     7.60000000
   97.09840000     8.10490000     7.60000000
   97.09849000     8.11720000     8.30000000
   97.09871000     8.12960000     8.50000000
   97.09879000     8.14190000     8.70000000
   97.09899000     8.15430000     9.00000000
   97.09910000     8.16660000     9.10000000
   97.09930000     8.17900000     7.70000000
   97.09940000     8.19130000     6.50000000
   97.09960000     8.20370000     5.10000000
   97.09971000     8.21600000     3.80000000
   97.09990000     8.22830000     2.50000000
   97.09990000     8.24060000    -0.10000000
   97.09971000     8.25279000    -0.50000000
   97.09960000     8.26500000    -0.70000000
   97.09940000     8.27720000     0.10000000
   97.09930000     8.28940000     1.30000000
   97.09910000     8.30160000     1.50000000
   97.09890000     8.31370000     1.70000000
   97.09879000     8.32590000     2.80000000
   97.09860000     8.33810000     4.00000000
   97.09849000     8.35030000     4.70000000
   97.09829000     8.36250000     5.30000000
   97.09860000     8.37440000     9.00000000
   97.09910000     8.38620000     9.70000000
   97.09949000     8.39800000    10.50000000
   97.09990000     8.40980000    11.10000000
   97.10030000     8.42160000    10.20000000
   97.10071000     8.43340000     9.50000000
   97.10110000     8.44520000    10.10000000
   97.10149000     8.45701000    10.80000000
   97.10199000     8.46881000    11.00000000
   97.10241000     8.48059000    11.20000000
   97.10280000     8.49250000    11.80000000
   97.10319000     8.50430000    12.50000000
   97.10260000     8.51510000     7.00000000
   97.10160000     8.52580000     8.70000000
   97.10071000     8.53640000     9.50000000
   96.92860000     8.56430000     8.20000000
   96.91620000     8.56540000     8.20000000
   96.90390000     8.56640000     9.10000000
   96.89150000     8.56750000    12.00000000
   96.87899000     8.56840000    10.50000000
   96.86609000     8.56920000    12.00000000
   96.85310000     8.57000000    14.20000000
   96.84020000     8.57080000    16.50000000
   96.82719000     8.57160000    18.70000000
   96.81429000     8.57239000    21.70000000
   96.80130000     8.57320000    21.60000000
   96.78840000     8.57400000    18.70000000
   96.77539000     8.57470000    17.70000000
   96.76251000     8.57550000    15.70000000
   96.74950000     8.57630000    12.70000000
   96.73660000     8.57711000    10.00000000
   96.72361000     8.57790000     7.20000000
   96.71071000     8.57870000     4.50000000
   96.69770000     8.57950000     1.80000000
   96.68471000     8.58020000    -1.20000000
   96.67150000     8.58090000    -3.20000000
   96.65830000     8.58160000    -1.60000000
   96.64551000     8.58190000    -2.10000000
   96.63269000     8.58220000    -2.00000000
   96.61990000     8.58250000    -2.00000000
   96.60711000     8.58280000    -1.80000000
   96.59429000     8.58310000    -1.70000000
   96.58150000     8.58370000    -2.00000000
   96.56860000     8.58480000    -1.80000000
   96.55570000     8.58591000    -1.70000000
   96.54290000     8.58700000    -1.60000000
   96.53000000     8.58810000     0.50000000
   96.51721000     8.58920000     3.00000000
   96.50431000     8.59020000     6.00000000
   96.49141000     8.59130000     8.80000000
   96.47859000     8.59241000    10.80000000
   96.46560000     8.59359000     9.50000000
   96.45209000     8.59500000    11.50000000
   96.43860000     8.59651000    11.50000000
   96.42520000     8.59800000    14.30000000
   96.41169000     8.59949000    17.20000000
   96.39820000     8.60090000    19.10000000
   96.38469000     8.60241000    19.60000000
   96.37201000     8.60400000    29.50000000
   96.36030000     8.60550000    31.50000000
   96.34860000     8.60680000    30.50000000
   96.33700000     8.60810000    29.50000000
   96.32530000     8.60940000    29.00000000
   96.31359000     8.61070000    28.50000000
   96.30200000     8.61200000    30.80000000
   96.29029000     8.61320000    33.20000000
   96.27861000     8.61450000    34.60000000
   96.15371000     8.61980000    34.50000000
   96.13911000     8.62040000    35.50000000
   96.12451000     8.62100000    36.50000000
   96.11000000     8.62160000    40.50000000
   96.09540000     8.62310000    44.30000000
   96.08080000     8.62460000    47.20000000
   96.06620000     8.62610000    47.20000000
   96.05161000     8.62760000    47.20000000
