   96.07850000     5.85700000   -18.20000000
   96.06640000     5.84940000   -15.10000000
   96.05450000     5.84190000   -15.80000000
   96.04221000     5.83400000   -15.70000000
   96.02989000     5.82620000   -15.50000000
   96.01760000     5.81841000   -16.30000000
   96.00581000     5.80940000   -17.60000000
   95.99410000     5.80050000   -18.50000000
   95.98229000     5.79150000   -18.30000000
   95.63169000     6.23809000     3.50000000
   95.62301000     6.25110000     2.10000000
   95.61431000     6.26410000     2.50000000
   95.60560000     6.27710000     2.10000000
   95.59690000     6.29010000     3.50000000
   95.58831000     6.30310000     4.10000000
   95.57950000     6.31579000     6.30000000
   95.57071000     6.32840000     4.50000000
   95.56201000     6.34100000     4.80000000
   95.55350000     6.35390000     6.80000000
   95.54521000     6.36670000     8.50000000
   95.53679000     6.37960000     9.30000000
   95.52850000     6.39240000    10.50000000
   95.51999000     6.40520000     8.60000000
   95.51151000     6.41800000     9.00000000
   95.50289000     6.43070000     8.60000000
   95.49430000     6.44349000     8.80000000
   95.48579000     6.45620000     8.30000000
   95.47720000     6.46890000     7.80000000
   95.46869000     6.48170000     7.30000000
   95.46010000     6.49440000     6.80000000
   95.45159000     6.50720000     7.10000000
   95.44319000     6.52030000     9.00000000
   95.43491000     6.53370000     9.20000000
   95.42670000     6.54700000     9.50000000
   95.41839000     6.56040000    12.00000000
   95.41019000     6.57370000    14.30000000
   95.23860000     6.64500000    12.60000000
   95.22331000     6.64700000    12.30000000
   95.20779000     6.64960000    13.50000000
   95.19230000     6.65220000    13.30000000
   95.17679000     6.65490000    12.50000000
   95.16130000     6.65750000     9.20000000
   95.14590000     6.66009000    13.00000000
   95.13130000     6.66230000    10.10000000
   95.11681000     6.66460000     8.00000000
   95.10210000     6.66690000     7.00000000
   95.08759000     6.66910000     4.70000000
   95.07280000     6.67160000     1.70000000
   95.05789000     6.67410000    -0.20000000
   95.04310000     6.67659000    -0.60000000
   95.02811000     6.67920000    -0.50000000
   95.01301000     6.68180000    -0.20000000
   94.99819000     6.68430000    -2.10000000
   94.98351000     6.68690000    -3.30000000
   94.96869000     6.68940000    -4.20000000
   94.95390000     6.69030000    -7.60000000
   94.93910000     6.69120000   -12.50000000
   94.92470000     6.69230000    -9.00000000
   94.91100000     6.69390000   -11.80000000
   94.89729000     6.69550000   -10.50000000
   94.88360000     6.69710000   -12.00000000
   94.86990000     6.69870000   -13.60000000
   94.85619000     6.70030000   -15.50000000
   94.84251000     6.70189000   -15.80000000
   94.82891000     6.70370000   -16.50000000
   94.81540000     6.70550000   -21.60000000
   94.80180000     6.70730000   -27.60000000
   94.78829000     6.70900000   -33.00000000
   94.77480000     6.71080000   -35.80000000
   94.76120000     6.71260000   -40.00000000
   94.74750000     6.71420000   -45.80000000
   94.73379000     6.71580000   -48.50000000
   94.72011000     6.71740000   -47.30000000
   94.70640000     6.71900000   -45.50000000
   94.69269000     6.72060000   -41.80000000
   94.67901000     6.72220000   -36.70000000
   94.66530000     6.72380000   -31.20000000
   94.65160000     6.72541000   -27.70000000
   94.63789000     6.72700000   -24.60000000
   94.62421000     6.72860000   -17.20000000
   94.61039000     6.73020000    -9.00000000
   94.59671000     6.73180000     0.80000000
   94.58300000     6.73360000    11.20000000
   94.56940000     6.73541000    19.50000000
   94.55570000     6.73719000    24.30000000
   94.54199000     6.73900000    24.80000000
   94.52830000     6.74080000    25.20000000
   94.51460000     6.74249000    22.60000000
   94.50089000     6.74410000    18.20000000
   94.60049000     6.60850000    22.10000000
   94.60900000     6.60080000    21.00000000
   94.61759000     6.59310000    16.60000000
   94.62621000     6.58540000    12.50000000
   94.63491000     6.57790000     8.50000000
   94.64350000     6.57030000     6.00000000
   94.65221000     6.56280000     7.10000000
   94.66080000     6.55520000     7.70000000
   94.66950000     6.54769000     6.10000000
   94.67820000     6.54010000     6.60000000
   94.68669000     6.53230000     4.60000000
   94.69439000     6.52360000     4.20000000
   94.70220000     6.51480000     3.50000000
   94.70990000     6.50610000     2.80000000
   94.71769000     6.49730000     2.80000000
   94.72550000     6.48860000     2.00000000
   94.73320000     6.47980000     1.50000000
   94.74099000     6.47110000     0.10000000
   94.74880000     6.46231000     0.60000000
   94.75651000     6.45360000     0.30000000
   94.76429000     6.44480000     0.20000000
   94.77200000     6.43610000     0.60000000
   94.93980000     5.43870000    18.50000000
   94.93830000     5.42580000    18.70000000
   94.93691000     5.41280000    19.00000000
   94.93541000     5.39990000    17.80000000
   94.93399000     5.38699000    16.00000000
   94.93249000     5.37410000    12.50000000
   94.93079000     5.36120000    10.50000000
   94.92901000     5.34840000     7.70000000
   94.92729000     5.33550000     4.50000000
   94.92559000     5.32260000     2.20000000
   94.92381000     5.30970000     2.50000000
   94.91989000     5.28399000    -8.20000000
   94.91770000     5.27120000   -11.00000000
   94.91550000     5.25840000   -10.70000000
   94.91380000     5.24560000   -14.50000000
   94.91169000     5.23270000   -24.10000000
   94.90910000     5.22000000   -27.50000000
   94.90660000     5.20720000   -29.60000000
   94.90399000     5.19451000   -31.50000000
   94.90160000     5.18170000   -29.20000000
   94.89929000     5.16900000   -30.50000000
   94.89701000     5.15620000   -34.20000000
   94.89470000     5.14340000   -36.00000000
   94.89289000     5.12979000   -32.20000000
   94.89131000     5.11570000   -33.00000000
   94.88981000     5.10160000   -33.70000000
   94.88830000     5.08741000   -36.00000000
   94.88669000     5.07329000   -37.20000000
   94.88519000     5.05920000   -41.00000000
   94.88360000     5.04510000   -47.60000000
   94.88210000     5.03091000   -51.30000000
   94.88049000     5.01679000   -57.00000000
   94.87891000     5.00270000   -65.10000000
   94.87710000     4.98860000   -71.30000000
   94.87529000     4.97450000   -79.00000000
   94.87351000     4.96050000   -86.70000000
   94.87170000     4.94640000   -94.80000000
   94.86979000     4.93230000  -101.00000000
   94.86809000     4.91820000  -106.20000000
   94.86650000     4.90410000  -114.50000000
   94.86500000     4.89000000  -119.10000000
   94.86331000     4.87590000  -123.80000000
   94.86150000     4.86180000  -123.80000000
   94.86000000     4.84669000  -123.50000000
   94.85850000     4.83160000  -126.30000000
   94.85700000     4.81660000  -127.50000000
   94.85541000     4.80150000  -126.80000000
   94.85399000     4.78690000  -124.50000000
   94.84001000     4.71640000  -116.70000000
   94.83689000     4.70200000  -115.00000000
   94.83389000     4.68790000  -114.10000000
   94.83089000     4.67390000  -113.00000000
   94.82791000     4.65990000  -113.10000000
   94.82480000     4.64590000  -114.00000000
   94.82180000     4.63190000  -114.70000000
   94.81829000     4.61771000  -120.20000000
   94.81451000     4.60330000  -121.00000000
   94.81070000     4.58889000  -120.60000000
   94.80700000     4.57460000  -122.30000000
   94.80339000     4.56050000  -121.80000000
   94.79991000     4.54649000  -123.60000000
   94.79630000     4.53239000  -123.80000000
   94.79279000     4.51840000  -124.60000000
   94.78929000     4.50440000  -125.50000000
   94.78581000     4.49030000  -129.20000000
   94.78231000     4.47630000  -128.00000000
   94.77881000     4.46220000  -123.80000000
   94.77530000     4.44821000  -120.70000000
   94.77180000     4.43420000  -115.60000000
   94.76830000     4.42010000  -111.60000000
   94.76471000     4.40590000  -109.00000000
   94.76120000     4.39180000  -107.30000000
   94.75820000     4.37840000  -105.20000000
   94.75540000     4.36510000  -107.50000000
   94.75261000     4.35190000  -111.20000000
   94.74900000     4.33820000  -121.10000000
   94.74480000     4.32410000  -122.00000000
   94.74071000     4.31000000  -122.70000000
   94.73649000     4.29590000  -122.00000000
   94.73240000     4.28180000  -120.00000000
   94.72820000     4.26770000  -118.20000000
   94.72411000     4.25360000  -116.00000000
   94.71989000     4.23950000  -113.50000000
   94.71580000     4.22540000  -109.80000000
   94.71160000     4.21130000  -105.10000000
   94.70751000     4.19720000   -98.80000000
   94.70340000     4.18330000   -92.30000000
   94.69931000     4.16930000   -86.20000000
   94.69520000     4.15530000   -79.10000000
   94.69169000     4.14110000   -65.50000000
   94.68830000     4.12680000   -53.00000000
   94.68499000     4.11250000   -39.50000000
   94.68171000     4.09820000   -25.50000000
   94.67851000     4.08380000    -6.70000000
   94.67540000     4.06940000     4.60000000
   94.67231000     4.05501000    13.10000000
   94.66920000     4.04060000    22.70000000
   94.65040000     3.95170000     1.70000000
   94.64851000     3.94230000    -1.80000000
   94.64659000     3.93300000    -6.70000000
   94.64470000     3.92360000    -9.50000000
   94.64270000     3.91420000   -12.30000000
   94.64081000     3.90480000   -15.70000000
   94.63889000     3.89560000   -18.20000000
   94.63591000     3.88190000   -19.60000000
   94.63291000     3.86790000   -26.10000000
   94.62991000     3.85350000   -30.50000000
   94.62699000     3.84079000   -31.00000000
   94.62421000     3.82850000   -32.00000000
   94.62129000     3.81620000   -28.80000000
   94.61851000     3.80390000   -24.70000000
   94.61559000     3.79160000   -20.10000000
   94.61300000     3.77980000   -15.10000000
   94.61061000     3.76899000   -11.50000000
   94.60839000     3.75899000    -9.00000000
   94.60610000     3.74890000    -8.00000000
   94.60369000     3.73839000    -8.30000000
   94.60130000     3.72790000    -9.70000000
   94.59890000     3.71730000   -11.50000000
   94.59640000     3.70601000   -12.50000000
   94.59390000     3.69421000   -13.50000000
   94.59140000     3.68230000   -12.20000000
   94.57930000     3.61060000    -8.00000000
   94.57760000     3.59860000    -6.00000000
   94.57591000     3.58660000    -6.80000000
   94.57449000     3.57450000    -8.50000000
   94.57321000     3.56239000   -13.20000000
   94.57190000     3.55030000   -16.50000000
   94.57060000     3.53820000   -19.30000000
   94.56929000     3.52610000   -22.10000000
   94.56801000     3.51400000   -23.50000000
   94.56670000     3.50200000   -21.80000000
   94.56520000     3.48980000   -18.50000000
   94.56370000     3.47761000   -15.50000000
   94.56220000     3.46540000   -14.30000000
   94.56059000     3.45320000   -11.70000000
   94.55909000     3.44100000    -9.10000000
   94.55761000     3.42890000    -9.50000000
   94.55611000     3.41670000    -5.50000000
   94.55450000     3.40450000    -5.70000000
   94.55300000     3.39229000    -9.10000000
   94.55150000     3.38010000    -9.10000000
   94.54991000     3.36800000    -7.00000000
   94.54841000     3.35579000    -5.00000000
   94.54680000     3.34360000    -5.70000000
   94.54521000     3.33140000    -7.10000000
   94.54371000     3.31920000    -5.50000000
   94.54210000     3.30710000    -3.00000000
   94.54079000     3.29540000     0.50000000
   94.53960000     3.28390000     2.10000000
   94.53840000     3.27230000     5.70000000
   94.53709000     3.26080000    11.70000000
   94.53581000     3.24920000    16.50000000
   94.53431000     3.23740000    21.50000000
   94.53281000     3.22571000    28.50000000
   94.53139000     3.21390000    35.50000000
   94.52989000     3.20210000    42.10000000
   94.52839000     3.19030000    49.10000000
   94.52689000     3.17850000    57.60000000
   94.52539000     3.16680000    62.10000000
   94.52391000     3.15500000    58.60000000
   94.52191000     3.14350000    51.30000000
   94.51991000     3.13210000    44.50000000
   94.51799000     3.12060000    37.10000000
   94.51560000     3.10880000    35.30000000
   94.51321000     3.09700000    36.00000000
   94.51090000     3.08530000    37.60000000
   94.50600000     3.06180000    30.80000000
   94.50339000     3.05000000    26.50000000
   94.50089000     3.03820000    23.10000000
   94.49830000     3.02640000    22.20000000
   94.49580000     3.01460000    22.70000000
   94.49391000     3.00320000    27.00000000
   94.49219000     2.99190000    27.10000000
   94.49041000     2.98050000    28.20000000
   94.48871000     2.96920000    27.80000000
   94.48699000     2.95780000    28.00000000
   94.48529000     2.94650000    28.50000000
   94.48360000     2.93510000    33.30000000
   94.48220000     2.92390000    32.50000000
   94.48079000     2.91250000    27.00000000
   94.47909000     2.90090000    23.60000000
   94.47740000     2.88940000    20.80000000
   94.47570000     2.87780000    19.00000000
   94.47400000     2.86630000    18.00000000
   94.47230000     2.85470000    18.10000000
   94.47061000     2.84320000    19.20000000
   94.46891000     2.83160000    20.30000000
   94.46730000     2.82000000    22.50000000
   94.46580000     2.80830000    21.60000000
   94.46430000     2.79660000    17.20000000
   94.46271000     2.78480000    13.00000000
   94.46121000     2.77311000     7.60000000
   94.45960000     2.76180000     2.00000000
   94.45790000     2.75080000    -3.10000000
   94.45629000     2.73980000    -9.00000000
   94.45459000     2.72880000   -12.80000000
   94.45301000     2.71779000   -15.10000000
   94.45131000     2.70680000   -17.50000000
   94.44959000     2.69580000   -19.50000000
   94.44800000     2.68490000   -24.30000000
   94.44611000     2.67390000   -29.70000000
   94.44430000     2.66290000   -35.50000000
   94.44239000     2.65190000   -42.30000000
   94.44050000     2.64090000   -47.60000000
   94.43869000     2.63000000   -53.00000000
   94.43680000     2.61900000   -56.80000000
   94.43499000     2.60800000   -60.10000000
   94.43310000     2.59700000   -63.50000000
   94.43129000     2.58600000   -65.80000000
   94.42960000     2.57500000   -69.10000000
   94.42790000     2.56400000   -71.50000000
   94.42629000     2.55299000   -73.50000000
   94.42459000     2.54200000   -75.70000000
   94.42300000     2.53100000   -78.70000000
   94.42109000     2.52010000   -80.10000000
   94.41931000     2.50910000   -80.00000000
   94.41739000     2.49810000   -80.50000000
   94.41550000     2.48710000   -80.30000000
   94.41369000     2.47620000   -79.70000000
   94.41180000     2.46520000   -79.70000000
   94.40999000     2.45420000   -78.60000000
   94.40821000     2.44330000   -76.50000000
   94.42710000     2.34420000   -71.00000000
   94.43221000     2.33040000   -70.80000000
   94.43730000     2.31660000   -69.70000000
   94.44239000     2.30290000   -70.20000000
   94.44739000     2.28940000   -69.10000000
   94.45251000     2.27580000   -69.00000000
   94.45751000     2.26230000   -66.50000000
   94.46249000     2.24869000   -65.50000000
   94.46750000     2.23520000   -63.80000000
   94.47261000     2.22161000   -62.20000000
   94.47759000     2.20810000   -59.70000000
   94.48251000     2.19470000   -60.70000000
   94.48740000     2.18140000   -58.60000000
   94.49230000     2.16810000   -58.00000000
   94.49730000     2.15490000   -56.00000000
   94.50220000     2.14160000   -55.50000000
   94.50709000     2.12830000   -55.80000000
   94.51190000     2.11520000   -54.80000000
   94.51671000     2.10220000   -52.20000000
   94.52150000     2.08910000   -51.70000000
   94.52650000     2.07580000   -49.10000000
   94.53150000     2.06320000   -47.10000000
   94.53659000     2.05080000   -45.60000000
   94.54171000     2.03850000   -44.00000000
   94.54680000     2.02610000   -43.00000000
   94.57290000     1.96310000   -30.60000000
   94.57830000     1.95070000   -29.00000000
   94.58370000     1.93830000   -26.50000000
   94.58900000     1.92590000   -24.50000000
   94.59440000     1.91350000   -22.00000000
   94.59980000     1.90110000   -19.50000000
   94.60530000     1.88880000   -16.50000000
   94.61089000     1.87650000   -14.50000000
   94.61659000     1.86420000   -12.00000000
   94.62220000     1.85199000   -10.50000000
   94.62749000     1.83980000   -10.20000000
   94.63280000     1.82760000    -8.20000000
   94.63811000     1.81549000    -7.10000000
   94.64331000     1.80340000    -6.70000000
   94.64851000     1.79130000    -4.20000000
   94.65360000     1.77930000    -2.60000000
   94.65880000     1.76730000    -1.10000000
   94.66400000     1.75520000    -2.50000000
   94.66911000     1.74320000     1.20000000
   94.67481000     1.73060000     2.20000000
   94.68051000     1.71800000     4.00000000
   94.68630000     1.70550000     4.10000000
   94.69200000     1.69290000     4.10000000
   94.69770000     1.68030000     4.70000000
   94.70351000     1.66770000     4.70000000
   94.70921000     1.65510000     5.80000000
   94.71491000     1.64250000     7.00000000
   94.72080000     1.62960000     7.00000000
   94.72659000     1.61680000     7.10000000
   94.73251000     1.60400000     7.20000000
   94.73830000     1.59110000     8.20000000
   94.74419000     1.57829000     8.30000000
   94.75000000     1.56540000     9.30000000
   94.75590000     1.55260000    10.00000000
   94.76170000     1.53980000     9.70000000
   94.76749000     1.52709000    10.20000000
   94.77319000     1.51440000    10.80000000
   94.77900000     1.50170000    10.80000000
   94.78481000     1.48890000    11.50000000
   94.79060000     1.47610000    10.20000000
   94.79621000     1.46300000    10.20000000
   94.80211000     1.44980000    11.20000000
   94.80811000     1.43650000    10.30000000
   94.81420000     1.42330000    11.00000000
   94.82040000     1.41020000    10.60000000
   94.82660000     1.39710000    10.20000000
   94.83280000     1.38400000     9.70000000
   94.83900000     1.37090000     9.80000000
   94.84520000     1.35780000     9.30000000
   94.85141000     1.34470000     9.50000000
   94.85761000     1.33160000     8.00000000
   94.86389000     1.31840000     9.10000000
   94.87020000     1.30510000     8.70000000
   94.87649000     1.29180000     7.80000000
   94.88280000     1.27840000     7.30000000
   94.88920000     1.26510000     6.70000000
   94.89540000     1.25200000     7.80000000
   94.90160000     1.23890000     7.80000000
   94.90780000     1.22580000     7.50000000
   94.91400000     1.21270000     7.00000000
   94.92020000     1.19960000     6.00000000
   94.92640000     1.18660000     6.10000000
   94.93260000     1.17350000     5.10000000
   94.93880000     1.16039000     4.70000000
   94.94500000     1.14720000     4.10000000
   95.13680000     1.01420000    13.50000000
   95.15179000     1.01520000    15.00000000
   95.16689000     1.01619000    16.00000000
   95.18190000     1.01710000    17.50000000
   95.19689000     1.01810000    19.30000000
   95.21190000     1.01900000    21.80000000
   95.22689000     1.02000000    23.30000000
   95.24199000     1.02100000    23.30000000
   95.25690000     1.02190000    24.20000000
   95.27160000     1.02290000    25.70000000
   95.28640000     1.02380000    27.20000000
   95.30111000     1.02480000    28.60000000
   95.31590000     1.02580000    31.10000000
   95.33061000     1.02670000    32.60000000
   95.34551000     1.02770000    36.50000000
   95.36050000     1.02870000    38.50000000
   95.37560000     1.02960000    40.50000000
   95.39061000     1.03060000    42.00000000
   95.40560000     1.03149000    42.50000000
   95.42031000     1.03250000    43.50000000
   95.43499000     1.03350000    46.00000000
   95.44981000     1.03441000    46.30000000
   95.46449000     1.03540000    47.30000000
   95.47931000     1.03640000    48.30000000
   95.49400000     1.03730000    48.30000000
   95.50879000     1.03830000    47.30000000
   95.52350000     1.03920000    46.80000000
   95.53820000     1.04020000    44.80000000
   95.55300000     1.04120000    43.50000000
   95.56771000     1.04209000    41.50000000
   95.58250000     1.04310000    39.50000000
   95.59721000     1.04410000    36.50000000
   95.61200000     1.04501000    36.50000000
   95.62671000     1.04600000    36.50000000
   95.64150000     1.04700000    38.70000000
   95.65680000     1.04770000    38.20000000
   95.74441000     1.04031000    25.30000000
   95.75940000     1.03770000    22.00000000
   95.77450000     1.03501000    18.50000000
   95.78951000     1.03240000    16.50000000
   95.80461000     1.02971000    14.10000000
   95.81960000     1.02710000    12.00000000
   95.83461000     1.02441000     9.50000000
   95.84971000     1.02180000     6.60000000
   95.86470000     1.01911000     4.20000000
   95.87980000     1.01650000     2.30000000
   96.15271000     1.05400000   -53.50000000
   96.15891000     1.05610000   -54.50000000
   96.16511000     1.05830000   -56.20000000
   96.17120000     1.06031000   -59.50000000
   96.17710000     1.06209000   -60.10000000
   96.18310000     1.06390000   -61.60000000
   96.18910000     1.06570000   -63.00000000
   96.19500000     1.06750000   -64.00000000
   96.20101000     1.06930000   -65.00000000
   96.20701000     1.07110000   -67.00000000
   96.21280000     1.07290000   -68.70000000
   96.21861000     1.07470000   -70.10000000
   96.22450000     1.07650000   -72.50000000
   96.23031000     1.07820000   -73.30000000
   96.23610000     1.08000000   -75.10000000
   96.24191000     1.08180000   -76.30000000
   96.24769000     1.08360000   -78.20000000
   96.25359000     1.08530000   -79.80000000
   96.50490000     1.15190000   -88.50000000
   96.51321000     1.15520000   -88.00000000
   96.52160000     1.15830000   -85.80000000
   96.53000000     1.16140000   -83.80000000
   96.53840000     1.16451000   -81.50000000
   96.54680000     1.16760000   -79.30000000
   96.55530000     1.17070000   -76.20000000
   96.56370000     1.17380000   -73.00000000
   96.57210000     1.17680000   -70.30000000
   96.58050000     1.17990000   -66.50000000
   96.58920000     1.18190000   -61.50000000
   96.59790000     1.18380000   -58.00000000
   96.60661000     1.18580000   -54.50000000
   96.61539000     1.18770000   -50.20000000
   96.62410000     1.18960000   -45.30000000
   96.63269000     1.19159000   -41.80000000
   96.64111000     1.19370000   -36.30000000
   96.64960000     1.19571000   -32.80000000
   96.65799000     1.19780000   -30.50000000
   96.66639000     1.19990000   -27.30000000
   96.67501000     1.20200000   -22.70000000
   96.68380000     1.20400000   -20.60000000
   96.69261000     1.20610000   -20.10000000
   96.70140000     1.20820000   -19.20000000
   96.71021000     1.21030000   -18.70000000
   96.71900000     1.21240000   -18.20000000
   96.72790000     1.21450000   -17.60000000
   96.73671000     1.21660000   -16.30000000
   96.74550000     1.21870000   -13.70000000
   96.75431000     1.22080000   -10.30000000
   96.76310000     1.22279000    -7.30000000
   96.77191000     1.22490000    -3.80000000
   96.78951000     1.22910000     2.60000000
   96.79830000     1.23120000     5.20000000
   96.80720000     1.23330000     6.30000000
   96.81601000     1.23540000     7.20000000
   96.82480000     1.23760000     6.60000000
   96.83361000     1.23980000     7.50000000
   97.12910000     1.00660000    51.00000000
   97.12160000     1.00210000    48.20000000
   97.11420000     0.99710000    47.20000000
   97.10680000     0.99180000    46.60000000
   97.09940000     0.98640000    45.50000000
   97.09209000     0.98110000    48.80000000
   97.08550000     0.97550000    49.00000000
   97.07900000     0.96990000    49.60000000
   97.07240000     0.96420000    51.20000000
   97.06579000     0.95860000    53.00000000
   97.05931000     0.95300000    53.70000000
   97.05269000     0.94740000    55.30000000
   97.04610000     0.94180000    58.00000000
   97.03951000     0.93620000    61.10000000
   97.03309000     0.93050000    62.30000000
   97.02661000     0.92480000    62.20000000
   97.02010000     0.91909000    61.10000000
   97.01360000     0.91340000    59.50000000
   97.00720000     0.90770000    57.00000000
   97.00070000     0.90190000    53.80000000
   96.99419000     0.89620000    50.20000000
   96.98779000     0.89050000    46.00000000
   96.98129000     0.88480000    42.50000000
   96.97481000     0.87910000    37.60000000
   96.96830000     0.87340000    31.60000000
   96.96190000     0.86770000    27.10000000
   96.95529000     0.86190000    22.10000000
   96.94870000     0.85609000    17.10000000
   96.94219000     0.85030000    11.70000000
   96.93560000     0.84440000     6.60000000
   96.92901000     0.83860000     2.60000000
   96.92250000     0.83280000    -1.60000000
   96.91589000     0.82700000    -5.80000000
   96.90930000     0.82120000    -9.20000000
   96.90271000     0.81540000   -12.60000000
   96.89620000     0.80959000   -16.00000000
   96.88961000     0.80380000   -19.00000000
   96.88300000     0.79790000   -22.20000000
   96.87649000     0.79210000   -25.00000000
   96.86990000     0.78630000   -28.50000000
   96.86331000     0.78050000   -32.00000000
   96.85691000     0.77480000   -36.80000000
   96.85040000     0.76910000   -41.20000000
   96.84390000     0.76340000   -45.50000000
   96.83750000     0.75770000   -49.20000000
   96.83100000     0.75200000   -54.00000000
   96.82449000     0.74630000   -58.50000000
   96.81801000     0.74060000   -62.50000000
   96.81159000     0.73480000   -65.60000000
   96.80511000     0.72910000   -69.00000000
   96.79860000     0.72340000   -72.50000000
   96.79199000     0.71750000   -75.30000000
   96.78540000     0.71170000   -77.60000000
   96.77889000     0.70590000   -79.70000000
   96.77230000     0.70011000   -82.00000000
   96.76571000     0.69430000   -84.00000000
   96.75909000     0.68850000   -85.00000000
   96.75261000     0.68270000   -85.20000000
   96.74600000     0.67690000   -86.00000000
   96.73940000     0.67100000   -86.10000000
   96.73279000     0.66520000   -86.50000000
   96.72631000     0.65940000   -86.50000000
   96.71969000     0.65361000   -85.80000000
   96.71310000     0.64780000   -85.70000000
   96.70640000     0.64180000   -85.50000000
   96.69970000     0.63590000   -84.50000000
   96.69300000     0.62990000   -83.50000000
   96.68630000     0.62390000   -82.60000000
   96.67951000     0.61800000   -81.50000000
   96.67281000     0.61200000   -78.00000000
   96.66561000     0.60651000   -80.60000000
   96.65810000     0.60120000   -80.60000000
   96.65060000     0.59590000   -80.50000000
   96.64320000     0.59080000   -77.60000000
   96.63600000     0.58580000   -76.10000000
   96.62880000     0.58080000   -75.00000000
   96.62160000     0.57580000   -74.60000000
   96.61439000     0.57080000   -73.00000000
   96.60719000     0.56580000   -71.50000000
   96.59999000     0.56070000   -71.00000000
   96.59279000     0.55570000   -69.00000000
   96.58561000     0.55070000   -68.50000000
   96.57841000     0.54570000   -67.00000000
   96.57121000     0.54070000   -65.20000000
   96.56390000     0.53580000   -64.00000000
   96.55661000     0.53090000   -62.50000000
   96.54941000     0.52610000   -61.10000000
   96.54210000     0.52119000   -59.50000000
   96.53481000     0.51630000   -58.00000000
   96.52750000     0.51140000   -55.50000000
   96.52019000     0.50649000   -54.50000000
   96.51290000     0.50160000   -53.60000000
   96.52870000     0.40330000   -57.80000000
   96.53551000     0.39880000   -59.10000000
   96.54229000     0.39420000   -59.60000000
   96.54919000     0.38970000   -59.50000000
   96.55650000     0.38550000   -59.00000000
   96.56370000     0.38140000   -59.00000000
   96.57099000     0.37720000   -60.60000000
   96.57830000     0.37310000   -61.50000000
   96.58520000     0.36910000   -64.80000000
   96.66989000     0.37400000   -71.80000000
   96.67801000     0.37820000   -71.80000000
   96.68610000     0.38250000   -72.80000000
   96.69411000     0.38670000   -74.30000000
   96.70231000     0.39100000   -75.10000000
   96.71049000     0.39530000   -78.50000000
   96.71819000     0.39940000   -79.50000000
   96.72600000     0.40349000   -81.00000000
   96.73379000     0.40759000   -83.00000000
   96.74149000     0.41171000   -83.50000000
   96.74920000     0.41581000   -85.30000000
   96.75659000     0.42010000   -87.30000000
   96.76410000     0.42440000   -87.80000000
   96.77150000     0.42860000   -92.70000000
   96.77820000     0.43280000   -92.20000000
   96.78501000     0.43690000   -95.10000000
   96.79179000     0.44100000   -94.60000000
   96.79860000     0.44520000   -93.70000000
   96.80539000     0.44930000   -94.70000000
   96.81220000     0.45351000   -96.10000000
   96.81901000     0.45761000   -95.70000000
   96.82599000     0.46190000   -96.20000000
   96.83289000     0.46620000   -96.70000000
   96.83990000     0.47040000   -98.20000000
   96.84690000     0.47469000   -98.20000000
   96.85380000     0.47890000   -99.70000000
   96.86080000     0.48320000   -99.70000000
   96.86770000     0.48750000   -98.20000000
   96.87471000     0.49170000   -97.20000000
   96.88180000     0.49600000   -95.30000000
   96.88900000     0.50040000   -94.00000000
   96.89620000     0.50480000   -92.50000000
   96.90349000     0.50920000   -90.50000000
   96.91069000     0.51360000   -86.50000000
   96.91789000     0.51790000   -84.00000000
   96.92509000     0.52230000   -80.60000000
   96.93229000     0.52670000   -78.20000000
   96.93950000     0.53110000   -75.70000000
   96.94681000     0.53540000   -72.70000000
   96.95401000     0.53980000   -69.80000000
   96.96121000     0.54420000   -66.00000000
   96.96841000     0.54860000   -61.50000000
   96.97559000     0.55290000   -59.00000000
   96.98290000     0.55730000   -55.00000000
   96.99010000     0.56170000   -51.60000000
   96.99730000     0.56610000   -46.70000000
   97.00450000     0.57040000   -44.20000000
   97.01170000     0.57480000   -39.80000000
   97.01910000     0.57910000   -33.00000000
   97.02650000     0.58340000   -27.50000000
   97.03390000     0.58769000   -22.10000000
   97.04129000     0.59200000   -15.20000000
   97.04869000     0.59630000    -9.30000000
   97.05611000     0.60060000    -2.50000000
   97.06351000     0.60490000     2.70000000
   97.07090000     0.60920000     9.60000000
   97.07830000     0.61350000    17.00000000
   97.08570000     0.61780000    26.30000000
   97.09309000     0.62210000    34.20000000
   97.10049000     0.62640000    43.00000000
   97.10791000     0.63070000    49.00000000
   97.11531000     0.63510000    54.00000000
   97.12260000     0.63960000    57.00000000
   97.12999000     0.64400000    60.00000000
   97.13730000     0.64840000    63.00000000
   97.14470000     0.65290000    64.30000000
   97.15201000     0.65730000    65.80000000
   97.15941000     0.66170000    67.30000000
   97.16670000     0.66610000    67.30000000
   97.17401000     0.67060000    68.70000000
   97.18140000     0.67500000    71.20000000
   97.21811000     0.69719000    64.20000000
   97.22550000     0.70160000    61.80000000
   97.23290000     0.70580000    66.70000000
   97.24071000     0.70880000    68.20000000
   97.24850000     0.71189000    69.20000000
   97.25631000     0.71490000    69.70000000
   97.26410000     0.71800000    66.20000000
   97.27191000     0.72100000    62.30000000
   97.27981000     0.72420000    61.30000000
   97.28779000     0.72750000    61.80000000
   97.29571000     0.73071000    63.80000000
   97.30361000     0.73390000    63.80000000
   97.31150000     0.73719000    62.30000000
   97.31940000     0.74040000    57.00000000
   97.32710000     0.74380000    55.00000000
   97.33489000     0.74710000    55.00000000
   97.34259000     0.75050000    55.50000000
   97.35030000     0.75380000    57.50000000
   97.35811000     0.75710000    58.50000000
   97.36581000     0.76050000    60.30000000
   97.37360000     0.76380000    63.30000000
   97.38130000     0.76710000    60.80000000
   97.38900000     0.77030000    60.60000000
   97.39640000     0.77360000    58.60000000
   97.40379000     0.77700000    57.60000000
   97.41119000     0.78040000    55.10000000
   97.41870000     0.78369000    53.60000000
   97.42609000     0.78710000    51.50000000
   97.43330000     0.79110000    51.00000000
   97.44050000     0.79520000    51.00000000
   97.44770000     0.79920000    53.50000000
   97.55511000     0.65539000    35.00000000
   97.54910000     0.64870000    32.60000000
   97.54310000     0.64210000    30.50000000
   97.53720000     0.63600000    26.10000000
   97.53139000     0.62980000    20.70000000
   97.52561000     0.62350000    14.80000000
   97.51991000     0.61720000     7.00000000
   97.50840000     0.60470000    -6.50000000
   97.50261000     0.59840000   -10.50000000
   97.49700000     0.59210000   -13.00000000
   97.49141000     0.58591000   -16.50000000
   97.48590000     0.57970000   -15.50000000
   97.48059000     0.57380000   -15.50000000
   97.47531000     0.56780000   -15.50000000
   97.46989000     0.56190000   -14.00000000
   97.46460000     0.55591000   -17.10000000
   97.45899000     0.54990000   -12.70000000
   97.45340000     0.54380000   -11.20000000
   97.44770000     0.53780000    -8.70000000
   97.44219000     0.53160000    -4.20000000
   97.43660000     0.52550000    -1.70000000
   97.42559000     0.51320000     0.50000000
   97.41989000     0.50700000    -0.50000000
   97.41419000     0.50080000    -3.00000000
   97.40860000     0.49471000    -6.50000000
   97.40290000     0.48860000   -12.50000000
   97.39720000     0.48260000   -16.80000000
   97.39150000     0.47660000   -23.20000000
   97.38580000     0.47059000   -27.60000000
   97.38010000     0.46469000   -33.50000000
   97.37440000     0.45870000   -38.00000000
   97.36870000     0.45270000   -43.30000000
   97.36300000     0.44670000   -45.80000000
   97.35741000     0.44070000   -47.80000000
   97.35171000     0.43469000   -49.70000000
   97.34610000     0.42879000   -47.00000000
   97.34109000     0.42289000   -48.00000000
   97.33611000     0.41710000   -48.00000000
   97.33119000     0.41120000   -48.50000000
   97.32610000     0.40540000   -47.50000000
   97.32121000     0.39950000   -49.50000000
   97.31620000     0.39360000   -49.50000000
   97.31120000     0.38780000   -51.00000000
   97.30620000     0.38190000   -51.30000000
   97.30119000     0.37610000   -52.30000000
   97.29621000     0.37020000   -52.80000000
   97.29121000     0.36440000   -52.30000000
   97.28620000     0.35850000   -51.30000000
   97.28120000     0.35270000   -50.30000000
   97.27630000     0.34690000   -51.30000000
   97.27141000     0.34120000   -47.80000000
   97.26649000     0.33540000   -48.30000000
   97.26170000     0.32970000   -46.00000000
   97.25670000     0.32390000   -44.50000000
   97.25181000     0.31820000   -42.00000000
   97.24691000     0.31240000   -42.50000000
   97.24180000     0.30640000   -41.50000000
   97.23671000     0.30049000   -43.50000000
   97.23159000     0.29450000   -44.30000000
   97.22659000     0.28850000   -46.30000000
   97.22150000     0.28260000   -47.80000000
   97.21641000     0.27660000   -50.20000000
   97.21130000     0.27070000   -53.70000000
   97.20620000     0.26470000   -55.60000000
   97.20120000     0.25880000   -58.10000000
   97.19620000     0.25290000   -60.60000000
   97.19119000     0.24710000   -63.00000000
   97.18619000     0.24120000   -64.00000000
   97.18121000     0.23530000   -68.00000000
   97.17620000     0.22950000   -69.00000000
   97.17120000     0.22360000   -72.50000000
   97.16620000     0.21780000   -72.80000000
   97.16130000     0.21190000   -75.30000000
   97.15621000     0.20610000   -76.80000000
   97.15129000     0.20020000   -77.80000000
   97.14631000     0.19430000   -79.20000000
   97.14131000     0.18850000   -80.70000000
   97.13630000     0.18260000   -81.70000000
   97.13110000     0.17689000   -84.50000000
   97.12599000     0.17120000   -85.20000000
   97.12090000     0.16540000   -85.20000000
   97.11581000     0.15970000   -87.20000000
   97.11061000     0.15391000   -85.20000000
   97.10500000     0.14850000   -90.00000000
   97.09921000     0.14320000   -90.50000000
   97.09340000     0.13790000   -90.50000000
   97.08759000     0.13260000   -90.00000000
   97.08189000     0.12730000   -91.00000000
   97.07610000     0.12200000   -90.00000000
   97.07021000     0.11650000   -92.50000000
   97.06420000     0.11080000   -91.50000000
   97.05820000     0.10510000   -90.50000000
   97.05219000     0.09940000   -90.00000000
   97.04621000     0.09370000   -90.00000000
   97.04021000     0.08799000   -89.50000000
   97.03420000     0.08240000   -88.00000000
   97.02830000     0.07670000   -87.50000000
   97.02230000     0.07100000   -85.50000000
   97.01630000     0.06530000   -85.70000000
   97.01009000     0.05960000   -85.20000000
   97.00389000     0.05390000   -83.20000000
   96.99769000     0.04820000   -81.80000000
   96.99149000     0.04250000   -80.80000000
   96.98529000     0.03690000   -78.80000000
   96.97909000     0.03120000   -76.80000000
   96.97289000     0.02550000   -75.30000000
   96.96669000     0.01980000   -73.50000000
   96.96049000     0.01410000   -72.50000000
   96.95429000     0.00840000   -69.80000000
   96.94820000     0.00230000   -67.80000000
   96.94211000    -0.00370000   -66.80000000
   96.93599000    -0.00980000   -65.00000000
   96.92990000    -0.01590000   -63.00000000
   96.92390000    -0.02200000   -62.50000000
   96.91781000    -0.02810000   -60.50000000
   96.91169000    -0.03420000   -59.00000000
   96.90560000    -0.04031000   -57.00000000
   96.89951000    -0.04640000   -55.50000000
   96.89339000    -0.05250000   -55.00000000
   96.88730000    -0.05860000   -53.00000000
   96.88130000    -0.06470000   -52.10000000
   96.87521000    -0.07080000   -50.60000000
   96.86909000    -0.07690000   -51.10000000
   96.99169000    -0.19770000   -56.30000000
   96.99850000    -0.19200000   -57.80000000
   97.00531000    -0.18620000   -59.20000000
   97.01210000    -0.18050000   -59.20000000
   97.01891000    -0.17470000   -60.20000000
   97.02550000    -0.16910000   -64.50000000
   97.03209000    -0.16360000   -65.00000000
   97.03870000    -0.15810000   -66.00000000
   97.04521000    -0.15260000   -67.50000000
   97.05169000    -0.14750000   -69.30000000
   97.05831000    -0.14300000   -68.80000000
   97.06470000    -0.13850000   -69.20000000
   97.07129000    -0.13391000   -69.70000000
   97.07780000    -0.12940000   -69.70000000
   97.08431000    -0.12490000   -71.70000000
   97.09081000    -0.12040000   -72.20000000
   97.09729000    -0.11560000   -70.50000000
   97.10410000    -0.11100000   -70.00000000
   97.11089000    -0.10630000   -69.00000000
   97.11781000    -0.10160000   -68.00000000
   97.12460000    -0.09700000   -67.50000000
   97.13141000    -0.09230000   -65.50000000
   97.13830000    -0.08770000   -64.50000000
   97.14509000    -0.08300000   -60.60000000
   97.15190000    -0.07830000   -58.60000000
   97.15869000    -0.07370000   -54.20000000
   97.16561000    -0.06900000   -49.10000000
   97.17250000    -0.06430000   -48.10000000
   97.17951000    -0.05960000   -45.10000000
   97.18641000    -0.05480000   -42.20000000
   97.19339000    -0.05010000   -39.70000000
   97.20031000    -0.04540000   -37.70000000
   97.20729000    -0.04060000   -35.30000000
   97.21419000    -0.03590000   -34.80000000
   97.22119000    -0.03120000   -32.30000000
   97.22809000    -0.02650000   -36.00000000
   97.23490000    -0.02180000   -35.50000000
   97.24169000    -0.01710000   -33.50000000
   97.24861000    -0.01250000   -33.50000000
   97.25540000    -0.00780000   -32.00000000
   97.26221000    -0.00320000   -31.00000000
   97.26899000     0.00140000   -29.50000000
   97.27589000     0.00610000   -28.60000000
   97.28290000     0.01080000   -27.20000000
   97.29001000     0.01559000   -25.30000000
   97.29699000     0.02040000   -25.80000000
   97.30411000     0.02520000   -25.80000000
   97.31120000     0.03000000   -25.80000000
   97.31821000     0.03480000   -25.30000000
   97.32530000     0.03960000   -26.30000000
   97.33239000     0.04440000   -27.20000000
   97.33940000     0.04920000   -28.20000000
   97.34640000     0.05400000   -31.80000000
   97.35341000     0.05870000   -30.30000000
   97.36030000     0.06340000   -32.30000000
   97.36731000     0.06820000   -31.80000000
   97.37429000     0.07290000   -31.30000000
   97.38119000     0.07760000   -29.30000000
   97.38820000     0.08240000   -29.30000000
   97.39509000     0.08710000   -27.00000000
   97.40221000     0.09200000   -24.30000000
   97.40941000     0.09700000   -20.60000000
   97.41661000     0.10211000   -19.60000000
   97.42381000     0.10720000   -19.00000000
   97.43099000     0.11230000   -19.10000000
   97.43819000     0.11741000   -22.30000000
   97.44531000     0.12290000   -25.70000000
   97.45240000     0.12840000   -29.00000000
   97.45949000     0.13391000   -32.00000000
   97.46669000     0.13940000   -34.30000000
   97.47381000     0.14490000   -36.00000000
   97.48090000     0.15039000   -36.70000000
   97.48799000     0.15590000   -38.10000000
   97.49510000     0.16140000   -39.00000000
   97.50220000     0.16690000   -37.30000000
   97.50940000     0.17240000   -34.20000000
   97.51649000     0.17790000   -30.70000000
   97.52361000     0.18340000   -26.00000000
   97.53070000     0.18890000   -19.00000000
   97.53779000     0.19440000   -12.50000000
   97.54490000     0.19990000    -4.00000000
   97.55150000     0.20520000     0.70000000
   97.55781000     0.21041000    11.10000000
   97.56409000     0.21560000    20.80000000
   97.57040000     0.22080000    27.80000000
   97.57669000     0.22600000    33.50000000
   97.58300000     0.23120000    39.20000000
   97.58920000     0.23640000    43.00000000
   97.59551000     0.24161000    46.50000000
   97.60180000     0.24680000    47.00000000
   97.60811000     0.25200000    47.20000000
   97.61439000     0.25720000    46.20000000
   97.62090000     0.26210000    48.60000000
   97.62790000     0.26660000    47.00000000
   97.63480000     0.27110000    45.80000000
   97.64181000     0.27560000    44.50000000
   97.64870000     0.28010000    43.60000000
   97.65571000     0.28459000    43.50000000
   97.66280000     0.28880000    44.00000000
   97.67009000     0.29281000    43.50000000
   97.67729000     0.29680000    45.00000000
   97.68460000     0.30080000    46.10000000
   97.69189000     0.30500000    46.50000000
   97.69931000     0.30929000    44.60000000
   97.70671000     0.31350000    44.70000000
   97.71410000     0.31780000    45.20000000
   97.72150000     0.32210000    46.00000000
   97.72890000     0.32639000    48.00000000
   97.73629000     0.33070000    50.50000000
   97.74369000     0.33500000    54.10000000
   97.75111000     0.33931000    59.20000000
   97.75851000     0.34350000    60.50000000
   97.76560000     0.34830000    57.20000000
   97.77250000     0.35340000    55.20000000
   97.77931000     0.35850000    53.60000000
   97.78609000     0.36360000    51.80000000
   97.79290000     0.36870000    50.70000000
   97.79969000     0.37380000    49.60000000
   97.80650000     0.37900000    50.10000000
   97.81331000     0.38410000    50.60000000
   97.82010000     0.38920000    50.10000000
   97.82680000     0.39430000    46.00000000
   97.83361000     0.39940000    42.10000000
   97.84040000     0.40450000    38.10000000
   97.84710000     0.40960000    39.50000000
   97.85380000     0.41470000    40.20000000
   97.86050000     0.41980000    39.30000000
   97.86720000     0.42480000    36.00000000
   97.87390000     0.42990000    36.00000000
   97.88080000     0.43490000    36.00000000
   97.88789000     0.43990000    33.20000000
   97.89490000     0.44490000    31.00000000
   97.90201000     0.44990000    28.10000000
   97.90899000     0.45490000    25.50000000
   97.91600000     0.45990000    22.00000000
   97.92309000     0.46490000    20.60000000
   97.93010000     0.46990000    18.10000000
   97.93719000     0.47480000    17.00000000
   97.94411000     0.47980000    12.10000000
   97.95101000     0.48469000     7.00000000
   97.95801000     0.48960000     2.20000000
   97.96491000     0.49450000    -2.80000000
   97.97180000     0.49941000    -7.50000000
   97.97870000     0.50430000   -11.30000000
   97.98571000     0.50930000   -13.80000000
   97.99260000     0.51430000   -15.50000000
   97.99961000     0.51941000   -17.20000000
   98.00651000     0.52440000   -17.50000000
   98.01351000     0.52941000   -18.30000000
   98.02041000     0.53440000   -18.50000000
   98.02750000     0.53950000   -19.00000000
   98.03459000     0.54450000   -18.50000000
   98.04179000     0.54880000   -18.60000000
   98.04899000     0.55320000   -18.50000000
   98.05620000     0.55780000   -17.60000000
   98.06351000     0.56290000   -17.50000000
   98.07071000     0.56800000   -18.70000000
   98.07780000     0.57310000   -18.50000000
   98.08489000     0.57820000   -18.50000000
   98.09190000     0.58330000   -19.00000000
   98.09899000     0.58850000   -19.20000000
   98.10610000     0.59359000   -18.50000000
   98.11320000     0.59870000   -18.00000000
   98.12020000     0.60380000   -18.00000000
   98.12730000     0.60889000   -18.00000000
   98.13441000     0.61400000   -18.00000000
   98.14150000     0.61920000   -18.00000000
   98.14851000     0.62430000   -17.60000000
   98.15560000     0.62940000   -16.60000000
   98.16269000     0.63450000   -14.80000000
   98.16981000     0.63960000   -11.70000000
   98.17679000     0.64470000    -8.70000000
   98.18390000     0.64980000    -5.50000000
   98.19100000     0.65500000    -2.50000000
   98.19809000     0.66009000     0.50000000
   98.20510000     0.66520000     3.50000000
   98.21199000     0.67030000     4.30000000
   98.21869000     0.67520000     7.50000000
   98.25020000     0.70230000    27.00000000
   98.25620000     0.70790000    30.30000000
   98.26229000     0.71360000    33.10000000
   98.26830000     0.71930000    35.60000000
   98.27441000     0.72500000    39.30000000
   98.28070000     0.73090000    42.80000000
   98.28690000     0.73680000    46.50000000
   98.29321000     0.74270000    50.50000000
   98.29941000     0.74860000    53.00000000
   98.30570000     0.75440000    55.10000000
   98.31190000     0.76030000    56.30000000
   98.31821000     0.76620000    56.20000000
   98.32441000     0.77210000    55.60000000
   98.33069000     0.77800000    54.20000000
   98.33689000     0.78380000    51.30000000
   98.34320000     0.78970000    49.10000000
   98.34949000     0.79560000    48.00000000
   98.35569000     0.80160000    46.50000000
   98.36200000     0.80770000    45.00000000
   98.36840000     0.81390000    44.00000000
   98.37471000     0.82000000    43.00000000
   98.38099000     0.82609000    42.10000000
   98.38730000     0.83220000    41.80000000
   98.39359000     0.83841000    42.50000000
   98.39990000     0.84450000    42.00000000
   98.40621000     0.85060000    41.30000000
   98.41261000     0.85669000    39.70000000
   98.41889000     0.86280000    38.00000000
   98.42529000     0.86910000    37.60000000
   98.43171000     0.87530000    37.10000000
   98.43810000     0.88150000    36.20000000
   98.44450000     0.88770000    34.60000000
   98.45090000     0.89390000    35.50000000
   98.45729000     0.90020000    31.80000000
   98.46380000     0.90640000    30.10000000
   98.47019000     0.91259000    29.60000000
