   98.13530000     0.57170000   -27.00000000
   98.13060000     0.56420000   -28.50000000
   98.12590000     0.55660000   -28.20000000
   98.12101000     0.54940000   -29.10000000
   98.11620000     0.54230000   -29.00000000
   98.11139000     0.53531000   -29.30000000
   98.10669000     0.52830000   -31.50000000
   98.10191000     0.52130000   -28.70000000
   98.09710000     0.51420000   -27.80000000
   98.09240000     0.50720000   -29.10000000
   98.08759000     0.50020000   -30.00000000
   98.08289000     0.49320000   -31.10000000
   98.07810000     0.48620000   -33.80000000
   98.07341000     0.47920000   -33.10000000
   98.06860000     0.47220000   -33.20000000
   98.06370000     0.46520000   -33.00000000
   98.05881000     0.45830000   -33.70000000
   98.05389000     0.45130000   -32.70000000
   98.04899000     0.44430000   -29.80000000
   98.04410000     0.43730000   -27.60000000
   98.03920000     0.43040000   -25.00000000
   98.03459000     0.42320000   -19.60000000
   98.07160000     0.37229000   -12.50000000
   98.08041000     0.37040000   -14.10000000
   98.08931000     0.36850000   -15.00000000
   98.09799000     0.36660000   -17.80000000
   98.10669000     0.36470000   -19.10000000
   98.11539000     0.36290000   -22.50000000
   98.12410000     0.36100000   -23.00000000
   98.13280000     0.35910000   -24.00000000
   98.14150000     0.35730000   -25.70000000
   98.15020000     0.35540000   -25.30000000
   98.15891000     0.35350000   -26.50000000
   98.16761000     0.35169000   -24.70000000
   98.17629000     0.34980000   -23.10000000
   98.18499000     0.34790000   -19.80000000
   98.19370000     0.34610000   -16.80000000
   98.20240000     0.34430000   -13.00000000
   98.21110000     0.34250000   -12.00000000
   98.21980000     0.34080000   -10.50000000
   98.22850000     0.33910000    -7.30000000
   98.23740000     0.33760000    -6.80000000
   98.24619000     0.33600000    -6.20000000
   98.25509000     0.33461000    -2.60000000
   98.27300000     0.33210000     3.70000000
   98.28200000     0.33080000     6.00000000
   98.29101000     0.32950000     8.80000000
   98.29991000     0.32830000    12.60000000
   98.30889000     0.32710000    15.80000000
   98.31760000     0.32579000    17.30000000
   98.32610000     0.32450000    20.50000000
   98.33461000     0.32310000    24.00000000
   98.34320000     0.32180000    22.70000000
   98.35171000     0.32049000    34.70000000
   98.36019000     0.31931000    38.50000000
   98.36881000     0.31840000    44.00000000
   98.37730000     0.31750000    47.70000000
   98.38580000     0.31660000    50.20000000
   98.39440000     0.31579000    48.70000000
   98.40290000     0.31490000    54.70000000
   98.41141000     0.31401000    58.30000000
   98.42000000     0.31330000    60.50000000
   98.42851000     0.31230000    62.50000000
   98.43699000     0.31140000    65.00000000
   98.44550000     0.31040000    67.00000000
   98.45401000     0.30950000    69.10000000
   98.46249000     0.30850000    70.50000000
   98.47089000     0.30740000    71.60000000
   98.47931000     0.30630000    73.00000000
   98.48779000     0.30519000    74.00000000
   98.26880000     0.59980000    28.30000000
   98.26129000     0.59430000    21.50000000
   98.25389000     0.58910000    15.80000000
   98.24669000     0.58419000    11.20000000
   98.23940000     0.57930000     7.10000000
   98.23220000     0.57450000     3.20000000
   98.22489000     0.56970000    -0.30000000
   98.21761000     0.56490000    -4.80000000
   98.21030000     0.56010000    -8.50000000
   98.20309000     0.55531000   -10.70000000
   98.19589000     0.55050000   -13.20000000
   98.18869000     0.54580000   -16.00000000
   98.18149000     0.54100000   -19.00000000
   98.17431000     0.53630000   -22.00000000
   98.16711000     0.53150000   -24.20000000
   98.15991000     0.52670000   -25.50000000
   98.15271000     0.52200000   -26.10000000
   98.14551000     0.51720000   -27.50000000
   98.13839000     0.51250000   -26.00000000
   98.13160000     0.50800000   -26.50000000
   98.12479000     0.50340000   -27.20000000
   98.11801000     0.49890000   -29.00000000
   98.11120000     0.49430000   -28.80000000
   98.10441000     0.48980000   -28.60000000
   98.09760000     0.48520000   -27.80000000
   98.09090000     0.48070000   -28.10000000
   98.08400000     0.47610000   -29.30000000
   98.07730000     0.47150000   -29.10000000
   98.07049000     0.46710000   -30.60000000
   98.06381000     0.46260000   -30.70000000
   98.05711000     0.45810000   -27.50000000
   98.05041000     0.45360000   -26.00000000
   98.04371000     0.44910000   -26.60000000
   98.03701000     0.44460000   -22.50000000
   98.03039000     0.44020000   -20.00000000
   98.02391000     0.43580000   -18.00000000
   98.01730000     0.43130000   -15.70000000
   98.01070000     0.42690000   -12.80000000
   98.00409000     0.42250000   -10.50000000
   97.99761000     0.41810000    -8.60000000
   97.99099000     0.41349000    -6.00000000
   97.98440000     0.40890000    -3.00000000
   97.97790000     0.40440000    -0.20000000
   97.97130000     0.39980000     2.00000000
   97.96460000     0.39500000     3.30000000
   97.95801000     0.39010000     6.20000000
   97.95109000     0.38510000    10.10000000
   97.94411000     0.38010000    15.20000000
   97.93719000     0.37510000    20.10000000
   97.93029000     0.37010000    23.00000000
   97.92331000     0.36510000    21.10000000
   97.91639000     0.36010000    22.50000000
   97.90969000     0.35500000    27.70000000
   97.90299000     0.35000000    33.00000000
   97.89631000     0.34490000    35.30000000
   97.88961000     0.33991000    32.60000000
   97.88291000     0.33480000    29.80000000
   97.87621000     0.32980000    26.80000000
   97.86920000     0.32461000    27.10000000
   97.86231000     0.31940000    31.10000000
   97.85541000     0.31420000    36.20000000
   97.84840000     0.30890000    39.20000000
   97.84151000     0.30370000    41.60000000
   97.83450000     0.29850000    43.80000000
   97.82769000     0.29320000    44.00000000
   97.82110000     0.28790000    45.00000000
   97.81459000     0.28270000    45.00000000
   97.80820000     0.27740000    43.50000000
   97.80169000     0.27221000    41.50000000
   97.79521000     0.26700000    40.10000000
   97.78910000     0.26140000    37.10000000
   97.78300000     0.25580000    31.60000000
   97.77680000     0.25030000    32.50000000
   97.77069000     0.24470000    32.30000000
   97.76449000     0.23910000    31.50000000
   97.75820000     0.23320000    31.10000000
   97.75161000     0.22749000    31.60000000
   97.74491000     0.22170000    32.70000000
   97.73821000     0.21590000    35.30000000
   97.73151000     0.21010000    35.30000000
   97.72489000     0.20430000    31.60000000
   97.71819000     0.19850000    31.00000000
   97.71160000     0.19300000    32.50000000
   97.70510000     0.18750000    35.20000000
   97.69859000     0.18200000    33.60000000
   97.69200000     0.17650000    38.00000000
   97.68549000     0.17099000    41.20000000
   97.67890000     0.16550000    43.50000000
   97.67240000     0.16010000    46.00000000
   97.66600000     0.15460000    46.20000000
   97.65949000     0.14921000    44.50000000
   97.65299000     0.14370000    38.70000000
   97.64651000     0.13830000    31.20000000
   97.64011000     0.13280000    32.30000000
   97.63341000     0.12760000    30.50000000
   97.62679000     0.12240000    30.80000000
   97.62009000     0.11750000    26.30000000
   97.61350000     0.11350000    20.50000000
   97.60691000     0.10950000    12.00000000
   97.60049000     0.10510000     3.60000000
   97.59390000     0.10020000    -5.20000000
   97.58731000     0.09520000    -9.50000000
   97.58080000     0.09020000   -13.00000000
   97.57421000     0.08520000   -19.20000000
   97.56760000     0.08020000   -20.30000000
   97.56109000     0.07520000   -23.10000000
   97.55450000     0.07020000   -23.10000000
   97.54791000     0.06520000   -24.60000000
   97.54129000     0.06020000   -23.50000000
   97.53470000     0.05520000   -20.60000000
   97.52820000     0.05020000   -20.00000000
   97.52160000     0.04530000   -20.20000000
   97.51471000     0.04060000   -20.50000000
   97.50790000     0.03600000   -19.50000000
   97.50100000     0.03140000   -19.00000000
   97.49419000     0.02679000   -18.30000000
   97.48729000     0.02220000   -17.10000000
   97.48051000     0.01760000   -17.80000000
   97.47339000     0.01320000   -21.00000000
   97.46630000     0.00880000   -20.70000000
   97.45910000     0.00441000   -22.00000000
   97.44489000    -0.00430000   -28.00000000
   97.43780000    -0.00870000   -26.20000000
   97.43079000    -0.01320000   -30.00000000
   97.42390000    -0.01770000   -35.60000000
   97.41689000    -0.02220000   -31.50000000
   97.40999000    -0.02670000   -28.30000000
   97.40299000    -0.03120000   -27.20000000
   97.39609000    -0.03561000   -22.70000000
   97.38911000    -0.04000000   -21.00000000
   97.38210000    -0.04430000   -19.10000000
   97.37501000    -0.04870000   -18.20000000
   97.36801000    -0.05300000   -18.60000000
   97.36100000    -0.05739000   -15.30000000
   97.35399000    -0.06170000   -15.50000000
   97.34690000    -0.06610000   -15.30000000
   97.33981000    -0.07050000   -15.10000000
   97.33261000    -0.07490000   -16.00000000
   97.32549000    -0.07930000   -16.00000000
   97.31840000    -0.08370000   -16.30000000
   97.31100000    -0.08810000   -19.50000000
   97.30350000    -0.09240000   -20.50000000
   97.29591000    -0.09670000   -23.70000000
   97.28840000    -0.10100000   -24.30000000
   97.28089000    -0.10530000   -25.60000000
   97.27341000    -0.10960000   -27.50000000
   97.26590000    -0.11400000   -29.00000000
   97.25840000    -0.11830000   -30.00000000
   97.25080000    -0.12260000   -32.50000000
   97.24330000    -0.12700000   -35.00000000
   97.23579000    -0.13130000   -39.20000000
   97.22820000    -0.13569000   -42.80000000
   97.22069000    -0.14000000   -48.30000000
   97.21321000    -0.14430000   -54.10000000
   97.20570000    -0.14861000   -55.20000000
   97.19831000    -0.15290000   -58.70000000
   97.19091000    -0.15720000   -61.00000000
   97.18360000    -0.16170000   -65.50000000
   97.17640000    -0.16610000   -68.30000000
   97.16911000    -0.17050000   -69.50000000
   97.16191000    -0.17500000   -72.00000000
   97.15460000    -0.17940000   -74.80000000
   97.14740000    -0.18380000   -75.10000000
   97.14020000    -0.18830000   -76.50000000
   97.13291000    -0.19270000   -78.00000000
   97.12571000    -0.19710000   -80.20000000
   97.11851000    -0.20150000   -77.80000000
   97.11120000    -0.20600000   -78.00000000
   97.10399000    -0.21041000   -78.30000000
   97.09679000    -0.21480000   -76.50000000
   97.08959000    -0.21920000   -76.60000000
   97.08230000    -0.22370000   -74.00000000
   97.07499000    -0.22809000   -75.50000000
   97.06779000    -0.23260000   -71.50000000
   97.06050000    -0.23700000   -71.20000000
   97.05330000    -0.24140000   -68.30000000
   97.04599000    -0.24590000   -66.30000000
   97.03879000    -0.25030000   -65.00000000
   97.03150000    -0.25470000   -65.50000000
   97.02430000    -0.25920000   -61.60000000
   97.01699000    -0.26360000   -59.50000000
   97.00970000    -0.26809000   -58.50000000
   97.00231000    -0.27240000   -54.70000000
   96.99530000    -0.27740000   -53.60000000
   96.98830000    -0.28250000   -53.70000000
   96.98120000    -0.28751000   -55.80000000
   96.97420000    -0.29250000   -51.00000000
   96.96710000    -0.29751000   -49.80000000
   96.96010000    -0.30260000   -47.10000000
   96.95320000    -0.30780000   -40.50000000
   96.94639000    -0.31310000   -41.30000000
   96.93950000    -0.31840000   -39.10000000
   96.93260000    -0.32370000   -36.80000000
   96.92579000    -0.32900000   -36.60000000
   96.91889000    -0.33430000   -32.00000000
   96.91200000    -0.33960000   -28.70000000
   96.90510000    -0.34490000   -25.70000000
   96.89820000    -0.35020000   -21.70000000
   96.89131000    -0.35550000   -19.80000000
   96.88441000    -0.36080000   -16.10000000
   96.87749000    -0.36610000   -13.20000000
   96.87059000    -0.37090000   -11.20000000
   96.86361000    -0.37570000    -5.10000000
   96.92540000    -0.25520000   -34.00000000
   96.93280000    -0.25040000   -37.30000000
   96.94030000    -0.24550000   -38.00000000
   96.94781000    -0.24070000   -41.50000000
   96.95520000    -0.23580000   -47.50000000
   96.96210000    -0.23140000   -49.10000000
   96.96900000    -0.22689000   -51.50000000
   96.97581000    -0.22250000   -53.60000000
   96.98270000    -0.21800000   -53.60000000
   96.98960000    -0.21360000   -57.50000000
   96.99641000    -0.20910000   -62.30000000
   97.00281000    -0.20500000   -62.70000000
   97.00920000    -0.20090000   -59.70000000
   97.01560000    -0.19680000   -61.10000000
   97.02200000    -0.19260000   -64.00000000
   97.02839000    -0.18850000   -67.00000000
   97.03481000    -0.18440000   -69.20000000
   97.04129000    -0.18010000   -68.30000000
   97.04791000    -0.17590000   -71.00000000
   97.05450000    -0.17159000   -70.50000000
   97.06190000    -0.16730000   -66.30000000
   97.06960000    -0.16300000   -66.70000000
   97.07730000    -0.15861000   -67.10000000
   97.08489000    -0.15430000   -67.60000000
   97.09251000    -0.15000000   -66.60000000
   97.10021000    -0.14569000   -67.20000000
   97.10780000    -0.14130000   -66.50000000
   97.11550000    -0.13700000   -67.00000000
   97.12310000    -0.13271000   -66.80000000
   97.13080000    -0.12830000   -66.60000000
   97.13850000    -0.12400000   -63.70000000
   97.14609000    -0.11970000   -61.30000000
   97.15379000    -0.11530000   -59.00000000
   97.16150000    -0.11100000   -54.00000000
   97.16911000    -0.10660000   -50.50000000
   97.17690000    -0.10240000   -45.50000000
   97.18460000    -0.09820000   -44.30000000
   97.19230000    -0.09400000   -39.00000000
   97.20000000    -0.08980000   -34.80000000
   97.20779000    -0.08560000   -32.60000000
   97.21549000    -0.08140000   -31.20000000
   97.22289000    -0.07739000   -28.00000000
   97.23020000    -0.07350000   -30.10000000
   97.23760000    -0.06950000   -26.60000000
   97.24480000    -0.06550000   -24.20000000
   97.25200000    -0.06160000   -26.20000000
   97.25909000    -0.05770000   -26.80000000
   97.26590000    -0.05370000   -26.20000000
   97.27260000    -0.04980000   -25.10000000
   97.27939000    -0.04580000   -22.20000000
   97.28609000    -0.04180000   -22.80000000
   97.29290000    -0.03780000   -26.30000000
   97.29960000    -0.03390000   -23.10000000
   97.34031000    -0.00700000   -20.70000000
   97.34701000    -0.00230000   -22.00000000
   97.35380000     0.00220000   -25.50000000
   97.36070000     0.00690000   -26.30000000
   97.36751000     0.01160000   -27.20000000
   97.37429000     0.01619000   -30.50000000
   97.38119000     0.02089000   -33.10000000
   97.38769000     0.02550000   -34.60000000
   97.39420000     0.03010000   -33.60000000
   97.40070000     0.03460000   -30.80000000
   97.46090000     0.07400000   -23.70000000
   97.46769000     0.07880000   -25.00000000
   97.47470000     0.08400000   -25.50000000
   97.48190000     0.08940000   -27.30000000
   97.48910000     0.09480000   -28.80000000
   97.49630000     0.10010000   -32.00000000
   97.50350000     0.10500000   -32.60000000
   97.61111000     0.17470000    42.60000000
   97.61801000     0.17960000    42.60000000
   97.62501000     0.18440000    45.70000000
   97.63191000     0.18930000    46.70000000
   97.63889000     0.19410000    53.50000000
   97.64590000     0.19900000    50.50000000
   97.65271000     0.20400000    47.70000000
   97.65960000     0.20900000    41.50000000
   97.66639000     0.21410000    41.30000000
   97.67320000     0.21910000    41.70000000
   97.68001000     0.22420000    39.20000000
   97.68669000     0.22940000    38.70000000
   97.69339000     0.23450000    42.50000000
   97.70020000     0.23970000    45.30000000
   97.70690000     0.24480000    44.10000000
   97.71360000     0.25010000    43.10000000
   97.72000000     0.25550000    41.70000000
   97.72631000     0.26090000    38.30000000
   97.73260000     0.26631000    37.60000000
   97.73899000     0.27170000    36.30000000
   97.74530000     0.27710000    36.80000000
   97.75170000     0.28250000    40.50000000
   97.75759000     0.28760000    39.10000000
   97.76351000     0.29281000    45.60000000
   97.76930000     0.29790000    60.00000000
   97.77241000     0.30000000    48.50000000
   97.77491000     0.30150000    55.20000000
   97.77739000     0.30300000    58.20000000
   97.77881000     0.30320000    51.00000000
   97.72180000     0.39650000    59.60000000
   97.71650000     0.40680000    59.50000000
   97.71110000     0.41710000    62.60000000
   97.70579000     0.42740000    63.30000000
   97.70050000     0.43770000    62.00000000
   97.69511000     0.44800000    65.00000000
   97.68980000     0.45830000    63.00000000
   97.68421000     0.46840000    63.20000000
   97.67851000     0.47850000    63.70000000
   97.67290000     0.48860000    64.20000000
   97.66720000     0.49870000    66.10000000
   97.66150000     0.50870000    70.80000000
   97.65390000     0.51730000    61.80000000
   97.64620000     0.52460000    61.60000000
   97.63861000     0.53160000    61.20000000
   97.63091000     0.53870000    62.10000000
   97.62329000     0.54570000    57.50000000
   97.61531000     0.55330000    51.70000000
   97.60750000     0.56130000    52.00000000
   97.59990000     0.56940000    50.70000000
   97.59229000     0.57760000    48.10000000
   97.58481000     0.58580000    47.70000000
   97.57719000     0.59390000    43.60000000
   97.56960000     0.60210000    41.50000000
   97.56201000     0.61030000    40.10000000
   97.55439000     0.61820000    34.50000000
   97.54680000     0.62610000    29.00000000
   97.53920000     0.63400000    22.30000000
   97.53159000     0.64190000    17.10000000
   97.52400000     0.64980000    11.60000000
   97.51630000     0.65770000     6.80000000
   97.50879000     0.66560000     1.80000000
   97.50131000     0.67340000    -3.00000000
   97.49360000     0.68140000    -7.10000000
   97.48579000     0.68940000    -8.50000000
   97.47809000     0.69740000    -5.50000000
   97.47030000     0.70541000    -1.30000000
   97.46260000     0.71340000     3.20000000
   97.45529000     0.72090000     8.00000000
   97.44789000     0.72850000    16.80000000
   97.44061000     0.73610000    24.00000000
   98.05739000     1.19110000   -23.50000000
   98.05119000     1.19720000   -23.00000000
   98.04510000     1.20330000   -18.80000000
   98.03901000     1.20940000   -17.50000000
   98.03281000     1.21550000   -19.00000000
   98.02661000     1.22150000   -20.20000000
   98.02041000     1.22749000   -19.00000000
   98.01410000     1.23350000   -14.80000000
   98.00790000     1.23950000   -12.80000000
   98.00170000     1.24550000   -11.00000000
   97.99550000     1.25161000   -10.30000000
   97.98921000     1.25790000    -9.80000000
   97.98320000     1.26390000    -4.70000000
   97.97750000     1.26960000    -3.10000000
   97.97170000     1.27530000    -1.20000000
   97.96040000     1.28670000     1.10000000
   97.95479000     1.29240000     2.70000000
   97.94931000     1.29811000     2.10000000
   97.94380000     1.30390000     2.00000000
   97.93819000     1.30960000     3.80000000
   97.93271000     1.31530000     6.10000000
   97.92720000     1.32120000     6.20000000
   97.92181000     1.32720000     4.80000000
   98.13569000     1.66831000     5.50000000
   98.12810000     1.66400000     5.20000000
   98.12051000     1.65960000    10.70000000
   98.11281000     1.65530000    11.30000000
   98.10519000     1.65100000    11.30000000
   98.09760000     1.64660000    11.10000000
   98.08900000     1.64250000    12.10000000
   98.08041000     1.63840000    18.60000000
   98.07190000     1.63430000    22.60000000
   98.06331000     1.63009000    27.50000000
   98.05469000     1.62600000    28.00000000
   98.04621000     1.62190000    24.00000000
   98.03729000     1.61790000    20.50000000
   98.02850000     1.61380000    12.30000000
   98.01969000     1.60980000     8.80000000
   98.01151000     1.60540000    11.80000000
   98.00350000     1.60090000     8.80000000
   97.99550000     1.59640000     6.00000000
   97.98760000     1.59181000     6.60000000
   97.97959000     1.58720000     4.00000000
   97.97170000     1.58260000     3.50000000
   97.96380000     1.57800000     3.70000000
   97.95579000     1.57340000     1.30000000
   97.94789000     1.56880000     0.80000000
   97.94030000     1.56450000    -2.50000000
   97.93310000     1.55980000    -4.60000000
   97.92601000     1.55500000    -6.30000000
   97.91889000     1.55030000    -7.30000000
   97.91180000     1.54550000   -10.00000000
   97.90471000     1.54080000   -13.00000000
   97.89740000     1.53591000   -14.70000000
   97.89011000     1.53100000   -14.00000000
   97.88280000     1.52620000   -14.50000000
   97.87549000     1.52130000   -15.20000000
   97.86809000     1.51649000   -16.20000000
   97.86080000     1.51160000   -14.60000000
   97.85330000     1.50700000   -14.00000000
   97.84571000     1.50310000   -16.50000000
   97.83800000     1.49941000   -16.30000000
   97.83041000     1.49570000   -17.50000000
   97.82271000     1.49190000   -19.10000000
   97.81501000     1.48821000   -20.80000000
   97.80731000     1.48440000   -17.20000000
   97.79950000     1.48070000   -16.50000000
   97.79179000     1.47690000   -18.20000000
   97.78409000     1.47310000   -19.10000000
   97.77461000     1.46930000   -33.70000000
   97.76410000     1.46550000   -30.20000000
   97.75370000     1.46180000   -28.60000000
   97.74330000     1.45800000   -30.50000000
   97.73279000     1.45420000   -31.20000000
   97.72239000     1.45050000   -31.50000000
   97.71199000     1.44670000   -32.50000000
   97.70159000     1.44300000   -32.30000000
   97.69119000     1.43900000   -30.20000000
   97.68090000     1.43510000   -30.30000000
   97.67050000     1.43120000   -30.80000000
   97.66019000     1.42730000   -32.20000000
   97.64979000     1.42340000   -35.50000000
   97.63950000     1.41940000   -26.80000000
   97.63010000     1.41450000   -27.20000000
   97.62190000     1.40970000   -14.50000000
   97.61550000     1.40480000   -13.80000000
   97.60911000     1.40000000   -11.10000000
   97.61959000     1.49680000   -12.00000000
   97.62730000     1.50310000   -11.70000000
   97.63491000     1.50941000   -12.80000000
   97.64259000     1.51570000   -11.20000000
   97.65029000     1.52200000   -17.50000000
   97.65710000     1.52770000   -17.00000000
   97.66389000     1.53350000   -17.70000000
   97.67050000     1.53940000   -19.50000000
   97.67720000     1.54520000   -20.60000000
   97.68390000     1.55100000   -18.70000000
   97.69050000     1.55680000   -17.60000000
   97.69720000     1.56270000   -16.70000000
   97.70329000     1.56910000   -16.60000000
   97.70890000     1.57580000   -15.30000000
   97.71460000     1.58260000   -15.20000000
   97.72030000     1.58940000   -14.00000000
   97.72600000     1.59620000   -12.30000000
   97.73159000     1.60290000   -12.60000000
   97.73721000     1.60980000   -16.20000000
   97.74280000     1.61660000   -16.00000000
   97.74830000     1.62350000   -16.30000000
   97.75381000     1.63030000   -16.10000000
   97.75940000     1.63720000   -15.50000000
   97.76490000     1.64400000   -18.20000000
   97.77041000     1.65100000   -19.00000000
   97.77589000     1.65800000   -17.00000000
   97.78159000     1.66520000   -13.80000000
   97.78740000     1.67230000   -14.30000000
   97.75929000     1.73690000   -29.50000000
   97.75181000     1.73839000   -29.80000000
   97.74430000     1.74000000   -29.00000000
   97.73679000     1.74140000   -31.70000000
   97.72931000     1.74280000   -30.70000000
   97.72180000     1.74420000   -36.30000000
   97.71430000     1.74560000   -36.00000000
   97.70679000     1.74700000   -37.20000000
   97.69920000     1.74839000   -42.00000000
   97.69161000     1.74980000   -41.70000000
   97.68399000     1.75120000   -41.20000000
   97.67629000     1.75260000   -42.70000000
   97.66861000     1.75410000   -45.20000000
   97.66100000     1.75550000   -50.10000000
   97.65329000     1.75690000   -51.00000000
   97.64581000     1.75820000   -53.60000000
   97.63830000     1.75940000   -57.10000000
   97.63010000     1.76131000   -59.10000000
   97.62201000     1.76309000   -62.50000000
   97.61381000     1.76490000   -64.60000000
   97.60560000     1.76670000   -65.60000000
   97.59749000     1.76830000   -67.50000000
   97.58940000     1.76980000   -68.50000000
   97.58130000     1.77130000   -71.60000000
   97.57321000     1.77270000   -74.00000000
   97.56509000     1.77420000   -72.50000000
   97.55700000     1.77570000   -72.10000000
   97.54891000     1.77710000   -71.00000000
   97.54090000     1.77839000   -73.20000000
   97.53281000     1.77990000   -76.10000000
   97.52480000     1.78140000   -71.70000000
   97.51680000     1.78300000   -68.60000000
   97.50879000     1.78450000   -66.80000000
   97.50070000     1.78600000   -63.10000000
   97.49241000     1.78740000   -58.00000000
   97.48421000     1.78880000   -53.60000000
   97.47589000     1.79019000   -51.50000000
   97.46769000     1.79160000   -48.30000000
   97.45940000     1.79311000   -48.00000000
   97.45131000     1.79440000   -47.60000000
   97.44311000     1.79560000   -54.30000000
   97.43499000     1.79650000   -57.50000000
   97.42690000     1.79730000   -54.30000000
   97.41870000     1.79820000   -55.20000000
   97.41060000     1.79910000   -51.10000000
   97.40260000     1.79980000   -51.50000000
   96.88811000     1.70360000   -33.50000000
   96.88119000     1.70790000   -35.00000000
   96.87440000     1.71210000   -31.80000000
   96.86751000     1.71630000   -34.10000000
   96.86061000     1.72050000   -35.00000000
   96.85369000     1.72470000   -37.20000000
   96.84640000     1.72860000   -36.70000000
   96.83909000     1.73249000   -35.00000000
   96.83180000     1.73640000   -35.80000000
   96.82449000     1.74030000   -37.00000000
   96.81720000     1.74420000   -39.50000000
   96.80989000     1.74810000   -39.80000000
   96.80269000     1.75150000   -39.50000000
   96.79549000     1.75480000   -38.60000000
   96.78829000     1.75810000   -37.20000000
   96.78109000     1.76150000   -36.10000000
   96.77391000     1.76480000   -34.70000000
   96.76671000     1.76820000   -34.30000000
   96.75940000     1.77120000   -33.50000000
   96.75211000     1.77429000   -31.50000000
   96.74480000     1.77730000   -30.00000000
   96.73749000     1.78040000   -30.80000000
   96.73020000     1.78350000   -26.50000000
   96.72280000     1.78650000   -27.50000000
   96.71541000     1.78910000   -26.80000000
   96.70801000     1.79170000   -25.20000000
   96.70059000     1.79440000   -27.60000000
   96.69319000     1.79700000   -25.30000000
   96.68580000     1.79959000   -28.80000000
   96.67840000     1.80230000   -29.20000000
   96.67081000     1.80470000   -28.20000000
   96.66311000     1.80700000   -25.80000000
   96.65549000     1.80940000   -25.20000000
   96.64779000     1.81180000   -22.60000000
   96.64020000     1.81420000   -21.80000000
   96.63249000     1.81660000   -18.80000000
   96.62501000     1.81950000   -14.50000000
   96.61740000     1.82230000   -11.20000000
   96.60980000     1.82520000    -2.30000000
   96.60230000     1.82800000     3.00000000
   96.59470000     1.83090000     6.50000000
   96.58709000     1.83371000    13.50000000
   96.57991000     1.83730000    16.50000000
   96.57271000     1.84090000    20.00000000
   96.56520000     1.84431000    20.80000000
   96.55761000     1.84760000    23.30000000
   96.54991000     1.85090000    23.60000000
   96.54229000     1.85431000    26.00000000
   96.53509000     1.85770000    25.30000000
   96.52800000     1.86110000    24.00000000
   96.52091000     1.86450000    19.30000000
   96.51379000     1.86800000    14.20000000
   96.50670000     1.87139000     8.00000000
   96.52770000     1.98550000    12.80000000
   96.52141000     1.99610000    13.50000000
   96.51479000     2.00720000    16.80000000
   96.50820000     2.01830000    17.80000000
   96.50170000     2.02940000    19.60000000
   96.49510000     2.04050000    18.70000000
   96.48849000     2.05170000    18.00000000
   96.48179000     2.06280000    15.60000000
   96.47520000     2.07420000    22.10000000
   96.46969000     2.08621000    23.60000000
   96.46430000     2.09820000    23.50000000
   96.45890000     2.11020000    21.30000000
   96.45340000     2.12211000    11.70000000
   96.44800000     2.13410000     8.80000000
   96.44280000     2.14610000     3.20000000
   96.43760000     2.15801000     3.10000000
   96.43249000     2.16990000    -0.70000000
   96.42729000     2.18180000    -0.20000000
   96.42220000     2.19380000     0.30000000
   96.41700000     2.20571000    -3.00000000
   96.40671000     2.22960000     4.10000000
   96.02911000     1.44231000   -63.50000000
   96.04340000     1.44640000   -71.50000000
   96.05770000     1.45050000   -75.60000000
   96.07199000     1.45450000   -77.70000000
   96.08631000     1.45860000   -77.30000000
   96.10080000     1.46280000   -81.20000000
   96.11531000     1.46700000   -84.10000000
   96.12980000     1.47110000   -86.80000000
   96.14440000     1.47529000   -89.30000000
   96.15891000     1.47950000   -89.30000000
   96.17340000     1.48360000   -86.20000000
   96.18791000     1.48760000   -84.00000000
   96.20240000     1.49150000   -83.50000000
   96.21691000     1.49540000   -79.00000000
   96.23140000     1.49920000   -73.50000000
   96.24600000     1.50270000   -71.80000000
   96.26051000     1.50620000   -66.00000000
   96.27500000     1.50970000   -63.00000000
   96.28929000     1.51310000   -53.00000000
   96.30350000     1.51649000   -46.80000000
   96.31771000     1.51990000   -42.10000000
   96.33200000     1.52330000   -35.10000000
   96.34621000     1.52670000   -30.50000000
   96.36039000     1.53010000   -26.00000000
   96.37471000     1.53350000   -19.50000000
   96.38900000     1.53690000   -14.10000000
   96.40321000     1.54030000   -10.00000000
   96.41750000     1.54370000    -5.20000000
   96.43179000     1.54720000    -4.50000000
   96.44611000     1.55061000    -2.80000000
   96.46030000     1.55410000    -2.10000000
   96.47450000     1.55800000    -2.00000000
   96.48871000     1.56190000    -2.70000000
   96.50289000     1.56580000    -3.50000000
   96.51710000     1.56970000    -4.10000000
   96.53120000     1.57359000    -4.10000000
   96.54521000     1.57780000    -7.20000000
   96.70040000     1.47950000   -24.20000000
   96.70999000     1.46830000   -25.20000000
   96.71989000     1.45770000   -21.50000000
   96.72981000     1.44710000   -22.50000000
   96.73971000     1.43660000   -18.60000000
   96.74950000     1.42600000   -15.20000000
   96.75940000     1.41550000   -20.30000000
   96.76930000     1.40490000   -15.30000000
   96.77920000     1.39440000   -13.50000000
   96.78910000     1.38380000    -9.70000000
   96.79899000     1.37320000    -6.30000000
   96.80889000     1.36270000    -4.50000000
   96.81879000     1.35210000    -0.50000000
   96.82880000     1.34150000     3.10000000
   96.83870000     1.33090000     4.00000000
   96.84849000     1.32030000     6.50000000
   96.85780000     1.30989000    12.30000000
   96.86709000     1.29950000    13.50000000
   96.87629000     1.28900000    19.00000000
   96.88561000     1.27860000    23.70000000
   96.89490000     1.26820000    28.80000000
   96.90421000     1.25770000    37.10000000
   96.91350000     1.24740000    43.30000000
   96.92290000     1.23720000    49.00000000
   96.93229000     1.22689000    55.30000000
   96.94169000     1.21670000    58.70000000
   96.95109000     1.20650000    65.50000000
   96.96049000     1.19629000    71.80000000
   96.96989000     1.18600000    70.60000000
   96.97940000     1.17580000    76.00000000
   96.98890000     1.16550000    77.20000000
   96.99830000     1.15520000    77.70000000
   97.00781000     1.14490000    71.60000000
   97.01730000     1.13460000    67.50000000
   97.02669000     1.12430000    61.50000000
   97.03620000     1.11400000    59.60000000
   97.04571000     1.10360000    58.00000000
   97.05530000     1.09320000    64.10000000
   97.06479000     1.08290000    62.10000000
   97.07441000     1.07250000    62.10000000
   97.08389000     1.06209000    62.60000000
   97.09351000     1.05170000    63.50000000
   97.10280000     1.04130000    67.70000000
   97.11239000     1.03040000    65.20000000
   97.12201000     1.01950000    61.50000000
   97.13160000     1.00860000    62.70000000
   97.14120000     0.99780000    64.30000000
   97.15079000     0.98690000    64.20000000
   97.15991000     0.97559000    66.10000000
   97.16850000     0.96410000    70.30000000
   97.17720000     0.95261000    82.10000000
   97.18580000     0.94110000    85.10000000
   97.19439000     0.92960000    79.60000000
   97.20309000     0.91810000    83.00000000
   97.21149000     0.90650000    77.10000000
   97.21930000     0.89460000    86.30000000
   97.22709000     0.88259000    89.60000000
   97.23479000     0.87070000    88.50000000
   97.24260000     0.85880000    91.00000000
   97.25039000     0.84690000    94.50000000
   97.25820000     0.83500000    91.00000000
   97.26599000     0.82300000    84.50000000
   97.27391000     0.81100000    77.50000000
   97.28181000     0.79899000    73.20000000
   97.28960000     0.78690000    77.20000000
   97.29880000     0.77500000    73.00000000
   97.30811000     0.76300000    67.50000000
   97.31740000     0.75110000    66.00000000
   97.32750000     0.73950000    59.00000000
   97.33750000     0.72800000    50.50000000
   97.34749000     0.71650000    45.80000000
   97.35761000     0.70490000    36.10000000
   97.36759000     0.69340000    30.20000000
   97.37649000     0.68189000    13.10000000
   97.38461000     0.67030000     7.80000000
   97.39281000     0.65860000     2.30000000
   97.40101000     0.64700000    -0.80000000
   97.40919000     0.63539000    -3.70000000
   97.41739000     0.62380000    -9.50000000
   97.42551000     0.61210000   -13.60000000
   97.43371000     0.60050000   -14.20000000
   97.44189000     0.58889000   -16.60000000
   97.45009000     0.57730000   -16.10000000
   97.45829000     0.56570000   -16.60000000
   97.46641000     0.55410000   -16.10000000
   97.47461000     0.54239000   -18.60000000
   97.48279000     0.53080000   -14.00000000
   97.58150000     0.50800000    50.50000000
   97.57341000     0.51730000    49.50000000
   97.56520000     0.52670000    44.30000000
   97.55711000     0.53600000    35.60000000
   97.54899000     0.54540000    30.00000000
   97.54090000     0.55470000    19.60000000
   97.53259000     0.56430000    12.00000000
   97.52411000     0.57400000     1.80000000
   97.51571000     0.58370000    -4.50000000
   97.50709000     0.59350000   -11.60000000
   97.49850000     0.60340000   -14.10000000
   97.48999000     0.61330000   -14.20000000
   97.48140000     0.62320000   -14.00000000
   97.47311000     0.63301000   -13.20000000
   97.46491000     0.64280000   -12.10000000
   97.45671000     0.65250000   -11.70000000
   97.44850000     0.66230000   -10.50000000
   97.44030000     0.67210000    -4.00000000
   97.43210000     0.68189000    -2.00000000
   97.42401000     0.69120000     3.50000000
   97.41589000     0.70011000    11.00000000
   97.40780000     0.70900000    20.30000000
   97.39979000     0.71790000    32.50000000
   97.39170000     0.72680000    39.80000000
   97.38360000     0.73570000    45.70000000
   97.37560000     0.74460000    50.80000000
   97.36700000     0.75320000    53.70000000
   97.35839000     0.76180000    63.60000000
   97.34971000     0.77040000    65.00000000
   97.34109000     0.77890000    68.50000000
   97.33239000     0.78750000    77.10000000
   97.22681000     0.77340000    72.00000000
   97.23320000     0.76290000    73.10000000
   97.23949000     0.75251000    75.70000000
   97.24580000     0.74200000    71.50000000
   97.25170000     0.73140000    67.70000000
   97.25770000     0.72090000    61.10000000
   97.26360000     0.71020000    53.80000000
   97.26960000     0.69951000    42.80000000
   97.27561000     0.68880000    31.60000000
   97.28159000     0.67820000    27.00000000
   97.28770000     0.66750000    20.20000000
   97.29371000     0.65680000    14.30000000
   97.29969000     0.64610000     6.60000000
   97.30561000     0.63550000     3.10000000
   97.31150000     0.62500000    -1.10000000
   97.31740000     0.61450000    -0.60000000
   97.32330000     0.60390000    -0.30000000
   97.32919000     0.59340000     1.10000000
   97.33511000     0.58290000     0.10000000
   97.34109000     0.57230000    -2.50000000
   97.34701000     0.56170000    -0.80000000
   97.35299000     0.55110000    -3.80000000
   97.35889000     0.54050000    -3.80000000
   97.36539000     0.52970000    -1.30000000
   97.37220000     0.51880000    -2.80000000
   97.37891000     0.50790000    -5.00000000
   97.38591000     0.49710000    -9.10000000
   97.39289000     0.48660000    -8.60000000
   97.39990000     0.47610000   -15.80000000
   97.45810000     0.39310000    -9.80000000
   97.46569000     0.38289000   -10.20000000
   97.47320000     0.37270000   -10.50000000
   97.48059000     0.36240000   -13.70000000
   97.48729000     0.35160000    -8.60000000
   97.49400000     0.34080000    -7.20000000
   97.50070000     0.33000000    -2.50000000
   97.50751000     0.31931000    -1.50000000
   97.51371000     0.30850000    -4.20000000
   97.51991000     0.29780000     1.00000000
   97.52569000     0.28720000    -1.30000000
   97.20070000     0.59440000    41.50000000
   97.19380000     0.59190000    42.10000000
   97.18680000     0.58920000    35.30000000
   97.17979000     0.58651000    32.00000000
   97.17281000     0.58380000    20.00000000
   97.16500000     0.58020000    15.50000000
   97.15721000     0.57670000     9.30000000
   97.14940000     0.57320000     4.50000000
   97.14139000     0.56950000    -5.50000000
   97.13300000     0.56570000    -3.30000000
   97.12460000     0.56181000    -5.30000000
   97.11620000     0.55800000   -10.00000000
   97.10780000     0.55410000   -14.60000000
   97.09940000     0.55030000   -23.50000000
   97.09101000     0.54640000   -29.30000000
   97.08261000     0.54260000   -34.50000000
   97.07421000     0.53870000   -44.80000000
   97.06570000     0.53490000   -50.30000000
   97.05731000     0.53100000   -58.50000000
   97.04891000     0.52720000   -60.30000000
   97.03200000     0.51941000   -75.50000000
   97.02361000     0.51560000   -79.50000000
   97.01521000     0.51170000   -82.00000000
   97.00681000     0.50790000   -87.70000000
   96.99830000     0.50400000   -85.70000000
   96.98991000     0.50020000   -91.20000000
   96.98151000     0.49630000   -87.50000000
   96.97270000     0.49180000   -89.80000000
   96.96380000     0.48740000   -91.00000000
   96.95501000     0.48291000   -98.60000000
   96.94611000     0.47840000   -93.50000000
   96.93730000     0.47400000   -98.30000000
   96.92840000     0.46950000  -102.50000000
   96.91959000     0.46500000  -100.00000000
   96.91060000     0.46050000  -100.60000000
   96.90171000     0.45600000  -103.50000000
   96.89270000     0.45150000  -101.50000000
   96.88380000     0.44690000   -97.80000000
   96.87590000     0.44291000   -93.20000000
   96.82499000     0.54370000   -83.20000000
   96.83211000     0.54920000   -79.20000000
   96.83931000     0.55470000   -75.80000000
   96.84651000     0.56020000   -75.30000000
   96.85369000     0.56570000   -73.50000000
   96.86089000     0.57121000   -71.50000000
   96.86801000     0.57690000   -68.60000000
   96.87510000     0.58260000   -69.10000000
   96.88219000     0.58840000   -65.50000000
   96.88939000     0.59410000   -59.50000000
   96.89651000     0.59980000   -56.00000000
   96.90360000     0.60560000   -53.50000000
   96.91080000     0.61140000   -48.70000000
   96.91811000     0.61720000   -45.70000000
   96.92529000     0.62301000   -38.30000000
   96.93249000     0.62880000   -39.60000000
   96.93969000     0.63460000   -36.50000000
   96.94681000     0.64030000   -34.30000000
   96.95390000     0.64570000   -32.30000000
   96.96160000     0.65040000   -29.00000000
   96.96930000     0.65520000   -25.30000000
   96.97709000     0.65990000   -20.10000000
   96.98479000     0.66470000   -14.60000000
   96.99249000     0.66940000    -8.50000000
   97.00020000     0.67410000    -1.30000000
   97.00781000     0.67880000     5.80000000
   97.01540000     0.68330000    10.00000000
   97.02300000     0.68760000    14.30000000
   97.03059000     0.69180000    21.00000000
   97.03820000     0.69599000    28.20000000
   97.04580000     0.70020000    35.50000000
   97.05330000     0.70440000    45.70000000
   97.06090000     0.70860000    52.00000000
   97.06860000     0.71240000    56.50000000
   97.03340000     0.50750000   -97.60000000
   97.02761000     0.50170000  -105.60000000
   97.02191000     0.49589000  -108.20000000
   97.01630000     0.49020000  -108.10000000
   97.01051000     0.48440000  -112.70000000
   97.00490000     0.47870000  -111.20000000
   96.99920000     0.47291000  -116.80000000
   96.99349000     0.46710000  -122.00000000
   96.98779000     0.46140000  -118.60000000
   96.98209000     0.45570000  -122.20000000
   96.97650000     0.44999000  -124.20000000
   96.97080000     0.44430000  -121.60000000
   96.96519000     0.43860000  -126.70000000
   96.95949000     0.43291000  -118.00000000
   96.95429000     0.42701000  -112.70000000
   96.94950000     0.42080000  -116.10000000
   96.94470000     0.41450000  -114.10000000
   96.94000000     0.40819000  -116.20000000
   96.93521000     0.40200000  -113.20000000
   96.93051000     0.39570000  -116.20000000
   96.92570000     0.38950000  -113.30000000
   96.92039000     0.38350000  -115.80000000
   96.91489000     0.37780000  -111.70000000
   96.90930000     0.37220000  -109.10000000
   96.90379000     0.36650000  -106.10000000
   96.89829000     0.36080000  -108.10000000
   96.89270000     0.35510000   -98.80000000
   96.88719000     0.34940000  -100.50000000
   96.88839000     0.31480000   -94.20000000
   96.89139000     0.30720000   -94.00000000
   96.89440000     0.29960000   -90.60000000
   96.89740000     0.29200000   -90.30000000
   96.90101000     0.28399000   -87.00000000
   96.90480000     0.27590000   -88.70000000
   96.90860000     0.26780000   -87.10000000
   96.91241000     0.25970000   -83.20000000
   96.91620000     0.25161000   -84.10000000
   96.92000000     0.24350000   -84.10000000
   96.92381000     0.23540000   -85.80000000
   96.92790000     0.22650000   -83.70000000
   96.93321000     0.21420000   -82.70000000
   96.93860000     0.20190000   -82.20000000
   96.94361000     0.18950000   -83.70000000
   96.94870000     0.17710000   -82.60000000
   96.95370000     0.16470000   -79.20000000
   96.95871000     0.15230000   -78.50000000
   96.96371000     0.13979000   -78.60000000
   96.96861000     0.12720000   -79.10000000
   96.97339000     0.11460000   -78.80000000
   96.97831000     0.10200000   -79.60000000
   96.98310000     0.08930000   -79.10000000
   96.98070000     0.08290000   -77.00000000
   96.96811000     0.08640000   -77.50000000
   96.95501000     0.08970000   -76.60000000
   96.94189000     0.09300000   -75.00000000
   96.92879000     0.09640000   -76.10000000
   96.91569000     0.09970000   -73.60000000
   96.90260000     0.10300000   -71.00000000
   96.88961000     0.10660000   -68.30000000
   96.87649000     0.11040000   -68.30000000
   96.86339000     0.11420000   -64.20000000
   96.85040000     0.11801000   -66.30000000
   96.83731000     0.12180000   -62.20000000
   96.82460000     0.12570000   -56.50000000
   96.81220000     0.12970000   -55.50000000
   96.79969000     0.13391000   -55.10000000
   96.78720000     0.13810000   -55.50000000
   96.77480000     0.14230000   -54.30000000
   96.76229000     0.14660000   -53.00000000
   96.74980000     0.15080000   -50.50000000
   96.73729000     0.15500000   -48.70000000
   96.72481000     0.15910000   -46.50000000
   96.71221000     0.16310000   -47.30000000
   96.69970000     0.16710000   -47.00000000
   96.68710000     0.17110000   -47.00000000
   96.67459000     0.17511000   -44.80000000
   96.66200000     0.17910000   -47.10000000
   96.64970000     0.18350000   -54.60000000
   96.63769000     0.18850000   -49.60000000
   96.62560000     0.19360000   -41.60000000
   96.61361000     0.19860000   -39.00000000
   96.60160000     0.20360000   -42.00000000
   96.58959000     0.20860000   -36.60000000
   96.57760000     0.21360000   -36.00000000
   96.56559000     0.21880000   -37.20000000
   96.55339000     0.22430000   -36.00000000
   96.54121000     0.22980000   -46.30000000
   96.52911000     0.23520000   -40.80000000
   96.51690000     0.24070000   -42.00000000
   96.50470000     0.24620000   -40.00000000
   96.49269000     0.25200000   -35.50000000
   96.48109000     0.25820000   -32.70000000
   96.46950000     0.26440000   -32.80000000
   96.45790000     0.27060000   -31.10000000
   96.44620000     0.27680000   -26.30000000
   96.43460000     0.28300000   -22.50000000
   96.42300000     0.28920000   -21.50000000
   96.41141000     0.29540000   -21.80000000
   96.39990000     0.30160000   -20.20000000
   96.38830000     0.30780000   -14.50000000
   96.37671000     0.31390000   -14.00000000
   96.36520000     0.32010000   -13.00000000
   96.35360000     0.32630000   -10.50000000
   96.34201000     0.33250000   -11.10000000
   96.33041000     0.33871000    -8.10000000
   96.31879000     0.34490000    -7.10000000
   96.30720000     0.35109000    -6.50000000
   96.29560000     0.35730000    -3.60000000
   96.28400000     0.36340000    -3.60000000
   96.27241000     0.36960000    -3.10000000
   96.26090000     0.37600000    -1.30000000
   96.24939000     0.38240000     2.30000000
   96.23790000     0.38880000     5.30000000
   96.22639000     0.39521000     6.50000000
   96.21491000     0.40160000     7.50000000
   96.20340000     0.40800000     9.50000000
   96.19169000     0.41409000     6.10000000
   96.17929000     0.41920000     8.70000000
   96.16689000     0.42430000    15.80000000
   96.15449000     0.42939000    17.20000000
   96.14220000     0.43440000    19.50000000
   96.12980000     0.43950000    22.00000000
   96.11740000     0.44460000    22.70000000
   96.10491000     0.44950000    23.50000000
   96.09251000     0.45440000    26.70000000
   96.08000000     0.45920000    27.60000000
   96.06751000     0.46409000    30.10000000
   96.05511000     0.46900000    32.10000000
   96.04260000     0.47380000    32.60000000
   96.03011000     0.47881000    35.10000000
   96.01760000     0.48390000    36.20000000
   96.00509000     0.48910000    37.50000000
   95.99260000     0.49420000    42.20000000
   95.98020000     0.49930000    41.20000000
   95.96769000     0.50450000    43.30000000
   95.95520000     0.50960000    43.70000000
   95.94261000     0.51480000    47.20000000
   95.93001000     0.52001000    49.70000000
   95.91739000     0.52510000    52.30000000
   95.90480000     0.53030000    55.10000000
   95.89220000     0.53550000    54.70000000
   95.87960000     0.54070000    56.80000000
   95.86690000     0.54591000    54.80000000
   95.85419000     0.55121000    56.00000000
   95.84140000     0.55651000    55.50000000
   95.82869000     0.56170000    58.50000000
   95.81559000     0.56709000    58.60000000
   95.80250000     0.57250000    58.60000000
   95.78940000     0.57800000    58.10000000
   95.77619000     0.58340000    57.60000000
