  106.97189000   -32.26637000   -39.10000000
  106.96822000   -32.26628000   -38.00000000
  106.96455000   -32.26618000   -38.20000000
  106.96088000   -32.26609000   -39.30000000
  106.95725000   -32.26600000   -38.40000000
  106.95362000   -32.26591000   -39.40000000
  106.94999000   -32.26582000   -39.10000000
  106.94636000   -32.26573000   -39.10000000
  106.94273000   -32.26564000   -38.70000000
  106.93910000   -32.26555000   -39.50000000
  106.93547000   -32.26546000   -39.90000000
  106.93184000   -32.26537000   -40.10000000
  106.92821000   -32.26528000   -40.20000000
  106.92458000   -32.26519000   -39.40000000
  106.92103000   -32.26512000   -39.00000000
  106.91748000   -32.26505000   -37.90000000
  106.91393000   -32.26498000   -39.60000000
  106.91038000   -32.26492000   -39.50000000
  106.90683000   -32.26485000   -39.40000000
  106.90328000   -32.26478000   -39.20000000
  106.89973000   -32.26472000   -39.20000000
  106.89618000   -32.26465000   -40.00000000
  106.89264000   -32.26458000   -39.50000000
  106.88909000   -32.26451000   -40.70000000
  106.88560000   -32.26458000   -40.70000000
  106.88212000   -32.26464000   -42.50000000
  106.87864000   -32.26470000   -42.20000000
  106.87515000   -32.26476000   -42.70000000
  106.87167000   -32.26482000   -43.30000000
  106.86819000   -32.26488000   -41.90000000
  106.86470000   -32.26494000   -43.80000000
  106.86122000   -32.26501000   -43.90000000
  106.85773000   -32.26507000   -44.40000000
  106.85425000   -32.26513000   -43.70000000
  106.85074000   -32.26524000   -44.20000000
  106.84723000   -32.26535000   -44.00000000
  106.84372000   -32.26547000   -45.60000000
  106.84022000   -32.26558000   -45.70000000
  106.83671000   -32.26569000   -46.70000000
  106.83320000   -32.26581000   -48.10000000
  106.82969000   -32.26592000   -49.20000000
  106.82618000   -32.26603000   -49.20000000
  106.82267000   -32.26614000   -49.10000000
  106.81916000   -32.26626000   -50.40000000
  106.81559000   -32.26637000   -50.30000000
  106.81201000   -32.26649000   -50.40000000
  106.80844000   -32.26661000   -52.20000000
  106.80487000   -32.26673000   -52.40000000
  106.80129000   -32.26684000   -53.10000000
  106.79772000   -32.26696000   -53.30000000
  106.79414000   -32.26708000   -53.80000000
  106.79057000   -32.26719000   -54.30000000
  106.78699000   -32.26731000   -54.70000000
  106.78342000   -32.26743000   -55.80000000
  106.76901000   -32.26798000   -57.20000000
  106.76541000   -32.26812000   -58.30000000
  106.76181000   -32.26826000   -59.00000000
  106.75821000   -32.26840000   -59.20000000
  106.75460000   -32.26854000   -60.60000000
  106.75100000   -32.26867000   -61.20000000
  106.74740000   -32.26881000   -62.20000000
  106.74380000   -32.26893000   -62.20000000
  106.74020000   -32.26904000   -63.40000000
  106.73660000   -32.26915000   -64.70000000
  106.73299000   -32.26927000   -65.10000000
  106.72939000   -32.26938000   -65.70000000
  106.72579000   -32.26949000   -66.20000000
  106.72219000   -32.26961000   -67.90000000
  106.71859000   -32.26972000   -68.90000000
  106.71498000   -32.26984000   -69.50000000
  106.71138000   -32.26995000   -69.90000000
  106.70781000   -32.27006000   -69.20000000
  106.70423000   -32.27018000   -71.00000000
  106.70066000   -32.27030000   -70.90000000
  106.69708000   -32.27041000   -72.70000000
  106.69351000   -32.27053000   -72.50000000
  106.68993000   -32.27064000   -74.80000000
  106.68636000   -32.27076000   -75.10000000
  106.68278000   -32.27087000   -75.50000000
  106.67921000   -32.27099000   -76.60000000
  106.67563000   -32.27110000   -77.80000000
  106.67210000   -32.27125000   -76.90000000
  106.66857000   -32.27140000   -79.90000000
  106.66503000   -32.27155000   -80.60000000
  106.66150000   -32.27171000   -79.90000000
  106.65797000   -32.27186000   -80.40000000
  106.65444000   -32.27201000   -81.30000000
  106.65090000   -32.27216000   -82.20000000
  106.64737000   -32.27231000   -84.10000000
  106.64384000   -32.27246000   -83.20000000
  106.64031000   -32.27261000   -85.20000000
  106.63671000   -32.27276000   -85.90000000
  106.63311000   -32.27290000   -85.90000000
  106.62951000   -32.27304000   -87.10000000
  106.62590000   -32.27319000   -86.60000000
  106.62230000   -32.27333000   -87.60000000
  106.61870000   -32.27348000   -88.30000000
  106.61510000   -32.27362000   -88.20000000
  106.61150000   -32.27376000   -89.90000000
  106.60789000   -32.27391000   -89.80000000
  106.60429000   -32.27405000   -89.90000000
  106.60073000   -32.27419000   -91.60000000
  106.59716000   -32.27432000   -92.00000000
  106.59360000   -32.27445000   -91.30000000
  106.59004000   -32.27458000   -92.70000000
  106.58647000   -32.27471000   -92.20000000
  106.58291000   -32.27485000   -92.60000000
  106.57934000   -32.27498000   -92.70000000
  106.57578000   -32.27511000   -94.10000000
  106.57222000   -32.27524000   -94.20000000
  106.56865000   -32.27537000   -94.60000000
  106.56511000   -32.27548000   -93.80000000
  106.56158000   -32.27558000   -94.90000000
  106.55804000   -32.27569000   -94.10000000
  106.55450000   -32.27579000   -94.80000000
  106.55097000   -32.27590000   -96.40000000
  106.54743000   -32.27600000   -96.70000000
  106.54389000   -32.27611000   -96.60000000
  106.54036000   -32.27621000   -97.10000000
  106.53682000   -32.27632000   -96.90000000
  106.53328000   -32.27642000   -96.50000000
  106.52973000   -32.27652000   -96.10000000
  106.52617000   -32.27661000   -95.80000000
  106.52262000   -32.27670000   -95.40000000
  106.51906000   -32.27680000   -95.00000000
  106.51551000   -32.27689000   -95.50000000
  106.51195000   -32.27699000   -94.90000000
  106.50840000   -32.27708000   -94.20000000
  106.50484000   -32.27717000   -93.70000000
  106.50129000   -32.27727000   -93.40000000
  106.49773000   -32.27736000   -92.80000000
  106.49416000   -32.27748000   -92.20000000
  106.49058000   -32.27761000   -91.50000000
  106.48701000   -32.27773000   -91.00000000
  106.48343000   -32.27785000   -90.00000000
  106.47986000   -32.27798000   -89.40000000
  106.47628000   -32.27810000   -88.60000000
  106.47271000   -32.27822000   -88.80000000
  106.46913000   -32.27834000   -87.40000000
  106.46556000   -32.27847000   -87.30000000
  106.46199000   -32.27859000   -85.40000000
  106.45845000   -32.27870000   -85.40000000
  106.45492000   -32.27882000   -84.80000000
  106.45139000   -32.27893000   -83.70000000
  106.44786000   -32.27904000   -83.70000000
  106.44433000   -32.27916000   -81.90000000
  106.44080000   -32.27927000   -82.00000000
  106.43727000   -32.27938000   -80.90000000
  106.43374000   -32.27950000   -79.50000000
  106.43021000   -32.27961000   -78.70000000
  106.42668000   -32.27972000   -77.80000000
  106.42309000   -32.27986000   -75.80000000
  106.41950000   -32.27999000   -75.00000000
  106.41591000   -32.28013000   -74.00000000
  106.41232000   -32.28027000   -73.00000000
  106.40873000   -32.28040000   -72.20000000
  106.40514000   -32.28054000   -70.70000000
  106.40156000   -32.28068000   -69.70000000
  106.39797000   -32.28081000   -68.30000000
  106.39438000   -32.28095000   -66.80000000
  106.39079000   -32.28108000   -65.20000000
  106.38724000   -32.28121000   -63.10000000
  106.38369000   -32.28133000   -62.00000000
  106.38015000   -32.28145000   -61.10000000
  106.37660000   -32.28157000   -59.20000000
  106.37305000   -32.28170000   -58.10000000
  106.36951000   -32.28182000   -56.60000000
  106.36596000   -32.28194000   -55.50000000
  106.36241000   -32.28206000   -53.70000000
  106.35887000   -32.28219000   -52.20000000
  106.35532000   -32.28231000   -51.30000000
  106.35177000   -32.28243000   -50.20000000
  106.34823000   -32.28256000   -48.20000000
  106.34468000   -32.28268000   -46.30000000
  106.34114000   -32.28281000   -46.50000000
  106.33759000   -32.28293000   -44.50000000
  106.33405000   -32.28306000   -43.00000000
  106.33050000   -32.28318000   -41.80000000
  106.32696000   -32.28331000   -42.50000000
  106.32341000   -32.28344000   -41.50000000
  106.31987000   -32.28356000   -41.50000000
  106.31608000   -32.28380000   -41.40000000
  106.31228000   -32.28404000   -40.90000000
  106.30847000   -32.28428000   -42.20000000
  106.30467000   -32.28453000   -41.50000000
  106.30087000   -32.28477000   -41.90000000
  106.29707000   -32.28502000   -40.20000000
  106.29326000   -32.28526000   -39.90000000
  106.28946000   -32.28550000   -39.10000000
  106.28566000   -32.28575000   -39.00000000
  106.28186000   -32.28599000   -38.50000000
  106.27804000   -32.28625000   -37.00000000
  106.27422000   -32.28651000   -36.90000000
  106.27040000   -32.28677000   -37.90000000
  106.26658000   -32.28704000   -35.70000000
  106.26276000   -32.28730000   -37.70000000
  106.25894000   -32.28756000   -37.40000000
  106.25512000   -32.28782000   -36.70000000
  106.25130000   -32.28808000   -36.00000000
  106.24748000   -32.28835000   -37.30000000
  106.24366000   -32.28861000   -37.70000000
  106.23992000   -32.28885000   -35.90000000
  106.23618000   -32.28910000   -35.70000000
  106.23244000   -32.28935000   -35.30000000
  106.22870000   -32.28960000   -35.60000000
  106.22496000   -32.28984000   -35.90000000
  106.22121000   -32.29009000   -35.00000000
  106.21747000   -32.29034000   -35.60000000
  106.21373000   -32.29058000   -36.10000000
  106.20999000   -32.29083000   -36.00000000
  106.20625000   -32.29108000   -35.40000000
  106.20248000   -32.29133000   -35.50000000
  106.19872000   -32.29158000   -37.60000000
  106.19496000   -32.29183000   -36.90000000
  106.19119000   -32.29207000   -37.10000000
  106.18743000   -32.29232000   -37.00000000
  106.18366000   -32.29257000   -37.80000000
  106.17990000   -32.29282000   -37.80000000
  106.17613000   -32.29307000   -38.00000000
  106.17237000   -32.29332000   -39.40000000
  106.16860000   -32.29357000   -39.60000000
  106.16481000   -32.29381000   -39.80000000
  106.16101000   -32.29406000   -38.90000000
  106.15722000   -32.29430000   -40.70000000
  106.15343000   -32.29454000   -39.90000000
  106.14963000   -32.29479000   -39.50000000
  106.14584000   -32.29503000   -40.60000000
  106.14204000   -32.29528000   -40.50000000
  106.13825000   -32.29552000   -40.50000000
  106.13445000   -32.29577000   -40.50000000
  106.13066000   -32.29601000   -41.10000000
  106.12693000   -32.29629000   -41.00000000
  106.12321000   -32.29656000   -41.00000000
  106.11948000   -32.29683000   -40.30000000
  106.11576000   -32.29711000   -40.60000000
  106.11203000   -32.29738000   -39.40000000
  106.10831000   -32.29766000   -39.50000000
  106.10458000   -32.29793000   -39.70000000
  106.10086000   -32.29820000   -40.70000000
  106.09713000   -32.29848000   -39.80000000
  106.09341000   -32.29875000   -39.80000000
  106.08973000   -32.29903000   -39.40000000
  106.08605000   -32.29930000   -39.50000000
  106.08238000   -32.29958000   -37.80000000
  106.07870000   -32.29986000   -38.70000000
  106.07502000   -32.30014000   -39.20000000
  106.07135000   -32.30041000   -38.20000000
  106.06767000   -32.30069000   -38.30000000
  106.06399000   -32.30097000   -38.30000000
  106.06031000   -32.30124000   -37.50000000
  106.05664000   -32.30152000   -37.70000000
  106.05298000   -32.30178000   -37.20000000
  106.04933000   -32.30205000   -37.80000000
  106.04568000   -32.30231000   -36.80000000
  106.04203000   -32.30258000   -36.00000000
  106.03837000   -32.30284000   -36.10000000
  106.03472000   -32.30311000   -35.80000000
  106.03107000   -32.30337000   -34.60000000
  106.02742000   -32.30364000   -35.00000000
  106.02377000   -32.30390000   -35.20000000
  106.02011000   -32.30417000   -34.70000000
  106.01638000   -32.30442000   -33.50000000
  106.01265000   -32.30467000   -33.20000000
  106.00892000   -32.30491000   -33.00000000
  106.00518000   -32.30516000   -33.00000000
  106.00145000   -32.30541000   -32.80000000
  105.99771000   -32.30566000   -31.30000000
  105.99398000   -32.30591000   -30.70000000
  105.99024000   -32.30616000   -30.80000000
  105.98651000   -32.30641000   -30.00000000
  105.98278000   -32.30666000   -29.50000000
  105.97914000   -32.30695000   -28.50000000
  105.97550000   -32.30725000   -27.30000000
  105.97187000   -32.30754000   -26.50000000
  105.96823000   -32.30784000   -26.00000000
  105.96459000   -32.30813000   -25.00000000
  105.96096000   -32.30843000   -25.00000000
  105.95732000   -32.30872000   -24.30000000
  105.95368000   -32.30902000   -23.70000000
  105.95005000   -32.30931000   -22.30000000
  105.94641000   -32.30960000   -22.70000000
  105.94273000   -32.30985000   -21.40000000
  105.93903000   -32.31009000   -21.10000000
  105.93534000   -32.31033000   -21.00000000
  105.93165000   -32.31058000   -20.30000000
  105.92796000   -32.31082000   -20.90000000
  105.92427000   -32.31106000   -19.50000000
  105.92058000   -32.31130000   -18.70000000
  105.91689000   -32.31155000   -17.70000000
  105.91320000   -32.31179000   -18.70000000
  105.90951000   -32.31203000   -17.40000000
  105.90582000   -32.31221000   -17.10000000
  105.90212000   -32.31239000   -15.50000000
  105.89843000   -32.31256000   -15.60000000
  105.89473000   -32.31274000   -14.60000000
  105.89104000   -32.31292000   -15.00000000
  105.88735000   -32.31310000   -15.70000000
  105.88365000   -32.31328000   -14.70000000
  105.87996000   -32.31346000   -15.70000000
  105.87626000   -32.31363000   -14.60000000
  105.87257000   -32.31381000   -15.00000000
  105.86887000   -32.31396000   -14.90000000
  105.86516000   -32.31412000   -14.70000000
  105.86146000   -32.31427000   -15.00000000
  105.85775000   -32.31442000   -14.10000000
  105.85405000   -32.31457000   -14.70000000
  105.85034000   -32.31472000   -14.90000000
  105.84664000   -32.31487000   -14.30000000
  105.84293000   -32.31502000   -14.20000000
  105.83923000   -32.31517000   -14.70000000
  105.83552000   -32.31532000   -14.20000000
  105.83186000   -32.31545000   -14.80000000
  105.82819000   -32.31557000   -13.90000000
  105.82453000   -32.31570000   -14.30000000
  105.82086000   -32.31582000   -13.80000000
  105.81719000   -32.31594000   -14.00000000
  105.81353000   -32.31606000   -14.50000000
  105.80986000   -32.31619000   -13.70000000
  105.80620000   -32.31631000   -13.80000000
  105.80253000   -32.31643000   -13.00000000
  105.79887000   -32.31656000   -13.30000000
  105.79525000   -32.31668000   -14.10000000
  105.79164000   -32.31679000   -12.70000000
  105.78802000   -32.31691000   -13.00000000
  105.78440000   -32.31703000   -12.40000000
  105.78079000   -32.31715000   -12.40000000
  105.77717000   -32.31727000   -12.00000000
  105.77355000   -32.31739000   -12.10000000
  105.76994000   -32.31750000   -11.90000000
  105.76632000   -32.31762000   -10.50000000
  105.76271000   -32.31774000   -10.40000000
  105.75912000   -32.31787000   -10.70000000
  105.75553000   -32.31800000   -10.10000000
  105.75195000   -32.31814000    -8.90000000
  105.74836000   -32.31827000    -9.40000000
  105.74477000   -32.31840000    -8.60000000
  105.74119000   -32.31853000    -8.70000000
  105.73760000   -32.31866000    -7.70000000
  105.73402000   -32.31880000    -7.70000000
  105.73043000   -32.31893000    -6.40000000
  105.72684000   -32.31906000    -6.70000000
  105.72325000   -32.31921000    -5.70000000
  105.71966000   -32.31936000    -6.20000000
  105.71607000   -32.31951000    -5.50000000
  105.71248000   -32.31966000    -4.50000000
  105.70889000   -32.31981000    -4.00000000
  105.70529000   -32.31995000    -2.90000000
  105.70170000   -32.32010000    -3.60000000
  105.69811000   -32.32025000    -2.70000000
  105.69452000   -32.32040000    -3.60000000
  105.69093000   -32.32055000    -3.60000000
  105.68725000   -32.32079000    -4.00000000
  105.68358000   -32.32103000    -4.60000000
  105.67990000   -32.32126000    -5.70000000
  105.67623000   -32.32150000    -4.40000000
  105.67255000   -32.32174000    -5.80000000
  105.66888000   -32.32198000    -5.30000000
  105.66520000   -32.32222000    -4.10000000
  105.66153000   -32.32245000    -5.80000000
  105.65785000   -32.32269000    -4.60000000
  105.65418000   -32.32293000    -6.70000000
  105.65049000   -32.32317000    -5.80000000
  105.64680000   -32.32341000    -6.00000000
  105.64311000   -32.32364000    -6.30000000
  105.63941000   -32.32388000    -6.50000000
  105.63572000   -32.32412000    -5.90000000
  105.63203000   -32.32436000    -5.20000000
  105.62834000   -32.32460000    -7.00000000
  105.62465000   -32.32484000    -8.10000000
  105.62096000   -32.32508000    -7.80000000
  105.61727000   -32.32532000    -7.50000000
  105.61362000   -32.32558000    -8.60000000
  105.60997000   -32.32585000    -8.40000000
  105.60632000   -32.32611000    -9.00000000
  105.60267000   -32.32638000    -9.60000000
  105.59902000   -32.32664000   -10.30000000
  105.59537000   -32.32691000   -10.80000000
  105.59172000   -32.32717000   -10.30000000
  105.58807000   -32.32744000   -11.10000000
  105.58442000   -32.32770000   -10.80000000
  105.58077000   -32.32797000   -12.30000000
  105.57715000   -32.32822000   -11.00000000
  105.57352000   -32.32847000   -11.40000000
  105.56990000   -32.32871000   -11.00000000
  105.56627000   -32.32896000   -11.50000000
  105.56265000   -32.32921000   -11.00000000
  105.55902000   -32.32945000   -11.40000000
  105.55540000   -32.32970000   -12.40000000
  105.55177000   -32.32995000   -11.50000000
  105.54815000   -32.33020000   -12.40000000
  105.54453000   -32.33044000   -12.20000000
  105.54084000   -32.33069000   -11.90000000
  105.53714000   -32.33095000   -13.60000000
  105.53345000   -32.33120000   -14.10000000
  105.52975000   -32.33145000   -13.20000000
  105.52606000   -32.33170000   -13.80000000
  105.52236000   -32.33195000   -13.50000000
  105.51867000   -32.33220000   -13.30000000
  105.51497000   -32.33245000   -13.50000000
  105.51128000   -32.33271000   -13.80000000
  105.50759000   -32.33296000   -14.90000000
  105.50393000   -32.33317000   -14.50000000
  105.50028000   -32.33339000   -13.70000000
  105.49663000   -32.33361000   -14.20000000
  105.49298000   -32.33382000   -15.00000000
  105.48933000   -32.33404000   -14.30000000
  105.48568000   -32.33426000   -13.40000000
  105.48203000   -32.33447000   -13.70000000
  105.47837000   -32.33469000   -14.30000000
  105.47472000   -32.33491000   -13.00000000
  105.47107000   -32.33513000   -12.40000000
  105.46757000   -32.33529000   -10.40000000
  105.46408000   -32.33546000   -10.60000000
  105.46059000   -32.33563000    -9.50000000
  105.45709000   -32.33579000    -9.50000000
  105.45360000   -32.33596000    -8.60000000
  105.45011000   -32.33613000    -8.60000000
  105.44662000   -32.33629000    -7.80000000
  105.44313000   -32.33646000    -8.50000000
  105.43963000   -32.33663000    -7.50000000
  105.43614000   -32.33679000    -7.60000000
  105.43263000   -32.33697000    -7.30000000
  105.42912000   -32.33716000    -7.80000000
  105.42561000   -32.33734000    -7.20000000
  105.42210000   -32.33752000    -6.80000000
  105.41859000   -32.33771000    -7.50000000
  105.41508000   -32.33789000    -8.30000000
  105.41157000   -32.33807000    -7.80000000
  105.40806000   -32.33826000    -8.60000000
  105.40454000   -32.33844000   -10.30000000
  105.40103000   -32.33862000   -11.00000000
  105.39749000   -32.33877000   -11.00000000
  105.39396000   -32.33891000   -12.20000000
  105.39042000   -32.33905000   -12.60000000
  105.38688000   -32.33920000   -12.80000000
  105.38334000   -32.33934000   -14.20000000
  105.37980000   -32.33949000   -15.70000000
  105.37626000   -32.33963000   -16.60000000
  105.37272000   -32.33978000   -17.20000000
  105.36918000   -32.33992000   -17.70000000
  105.36564000   -32.34006000   -18.80000000
  105.36217000   -32.34023000   -19.30000000
  105.35870000   -32.34040000   -20.60000000
  105.35523000   -32.34058000   -21.60000000
  105.35176000   -32.34075000   -23.40000000
  105.34829000   -32.34092000   -23.70000000
  105.34482000   -32.34109000   -24.90000000
  105.34135000   -32.34126000   -26.30000000
  105.33788000   -32.34143000   -28.00000000
  105.33441000   -32.34160000   -29.80000000
  105.33094000   -32.34177000   -30.50000000
  105.32744000   -32.34193000   -32.10000000
  105.32394000   -32.34209000   -34.30000000
  105.32044000   -32.34225000   -35.60000000
  105.31694000   -32.34242000   -37.10000000
  105.31344000   -32.34258000   -38.70000000
  105.30995000   -32.34274000   -40.60000000
  105.30645000   -32.34290000   -42.60000000
  105.30295000   -32.34306000   -44.00000000
  105.29945000   -32.34322000   -44.20000000
  105.29595000   -32.34339000   -45.90000000
  105.29244000   -32.34355000   -47.00000000
  105.28894000   -32.34370000   -49.40000000
  105.28543000   -32.34386000   -52.50000000
  105.28192000   -32.34402000   -53.90000000
  105.27841000   -32.34418000   -55.90000000
  105.27490000   -32.34434000   -56.50000000
  105.27139000   -32.34450000   -58.40000000
  105.26788000   -32.34466000   -60.30000000
  105.26437000   -32.34482000   -61.20000000
  105.26086000   -32.34497000   -63.40000000
  105.25728000   -32.34511000   -65.90000000
  105.25369000   -32.34524000   -65.90000000
  105.25011000   -32.34538000   -67.10000000
  105.24653000   -32.34551000   -67.30000000
  105.24294000   -32.34565000   -68.90000000
  105.23936000   -32.34578000   -69.80000000
  105.23578000   -32.34591000   -70.90000000
  105.23219000   -32.34605000   -72.40000000
  105.22861000   -32.34618000   -72.60000000
  105.22503000   -32.34632000   -73.20000000
  105.22132000   -32.34643000   -74.30000000
  105.21760000   -32.34655000   -75.30000000
  105.21389000   -32.34666000   -76.30000000
  105.21017000   -32.34678000   -76.80000000
  105.20646000   -32.34689000   -76.40000000
  105.20274000   -32.34701000   -76.40000000
  105.19903000   -32.34712000   -76.10000000
  105.19531000   -32.34724000   -76.80000000
  105.19160000   -32.34735000   -77.30000000
  105.18788000   -32.34747000   -76.80000000
  105.18421000   -32.34757000   -77.20000000
  105.18054000   -32.34767000   -76.30000000
  105.17687000   -32.34777000   -77.10000000
  105.17321000   -32.34788000   -76.60000000
  105.16954000   -32.34798000   -75.80000000
  105.16587000   -32.34808000   -75.60000000
  105.16220000   -32.34818000   -75.40000000
  105.15853000   -32.34829000   -75.30000000
  105.15486000   -32.34839000   -75.60000000
  105.15119000   -32.34849000   -74.90000000
  105.14756000   -32.34859000   -75.40000000
  105.14392000   -32.34869000   -74.40000000
  105.14029000   -32.34879000   -74.20000000
  105.13666000   -32.34889000   -74.60000000
  105.13303000   -32.34899000   -73.70000000
  105.12940000   -32.34908000   -74.20000000
  105.12577000   -32.34918000   -73.40000000
  105.12214000   -32.34928000   -73.40000000
  105.11851000   -32.34938000   -72.90000000
  105.11488000   -32.34948000   -73.40000000
  105.11121000   -32.34956000   -72.00000000
  105.10754000   -32.34964000   -72.20000000
  105.10387000   -32.34972000   -71.60000000
  105.10020000   -32.34980000   -70.20000000
  105.09653000   -32.34988000   -71.70000000
  105.09286000   -32.34996000   -71.30000000
  105.08920000   -32.35004000   -70.10000000
  105.08553000   -32.35012000   -70.50000000
  105.08186000   -32.35020000   -70.00000000
  105.07819000   -32.35028000   -69.20000000
  105.07452000   -32.35036000   -68.70000000
  105.07085000   -32.35044000   -68.30000000
  105.06718000   -32.35052000   -67.40000000
  105.06351000   -32.35060000   -68.00000000
  105.05984000   -32.35068000   -67.30000000
  105.05617000   -32.35076000   -67.00000000
  105.05250000   -32.35084000   -66.60000000
  105.04883000   -32.35093000   -65.70000000
  105.04516000   -32.35101000   -65.40000000
  105.04149000   -32.35109000   -65.10000000
  105.03786000   -32.35117000   -63.70000000
  105.03422000   -32.35125000   -65.10000000
  105.03058000   -32.35133000   -63.90000000
  105.02695000   -32.35141000   -63.30000000
  105.02331000   -32.35149000   -63.90000000
  105.01967000   -32.35157000   -63.10000000
  105.01604000   -32.35165000   -62.60000000
  105.01240000   -32.35174000   -61.80000000
  105.00877000   -32.35182000   -62.00000000
  105.00513000   -32.35190000   -61.30000000
  105.00150000   -32.35197000   -60.90000000
  104.99786000   -32.35204000   -61.10000000
  104.99423000   -32.35211000   -60.10000000
  104.99059000   -32.35218000   -59.80000000
  104.98696000   -32.35225000   -60.30000000
  104.98333000   -32.35232000   -59.50000000
  104.97969000   -32.35239000   -58.70000000
  104.97606000   -32.35246000   -58.20000000
  104.97242000   -32.35252000   -57.40000000
  104.96879000   -32.35259000   -58.10000000
  104.96515000   -32.35265000   -57.60000000
  104.96150000   -32.35271000   -55.90000000
  104.95786000   -32.35277000   -56.30000000
  104.95421000   -32.35283000   -56.30000000
  104.95057000   -32.35289000   -55.90000000
  104.94692000   -32.35295000   -55.90000000
  104.94328000   -32.35301000   -54.80000000
  104.93963000   -32.35307000   -55.10000000
  104.93599000   -32.35313000   -54.30000000
  104.93234000   -32.35319000   -54.10000000
  104.92871000   -32.35324000   -53.40000000
  104.92507000   -32.35330000   -54.00000000
  104.92143000   -32.35336000   -53.30000000
  104.91779000   -32.35342000   -52.80000000
  104.91415000   -32.35348000   -53.10000000
  104.91051000   -32.35354000   -52.80000000
  104.90687000   -32.35360000   -52.10000000
  104.90324000   -32.35365000   -52.10000000
  104.89960000   -32.35371000   -52.40000000
  104.89596000   -32.35377000   -51.90000000
  104.89232000   -32.35384000   -51.80000000
  104.88868000   -32.35392000   -51.50000000
  104.88504000   -32.35399000   -50.70000000
  104.88140000   -32.35407000   -49.60000000
  104.87776000   -32.35414000   -50.10000000
  104.87412000   -32.35422000   -50.20000000
  104.87047000   -32.35429000   -50.20000000
  104.86683000   -32.35437000   -48.40000000
  104.86319000   -32.35444000   -48.80000000
  104.85955000   -32.35452000   -49.80000000
  104.85587000   -32.35459000   -48.90000000
  104.85218000   -32.35467000   -49.40000000
  104.84849000   -32.35475000   -49.30000000
  104.84480000   -32.35483000   -48.90000000
  104.84111000   -32.35490000   -49.70000000
  104.83742000   -32.35498000   -49.40000000
  104.83374000   -32.35506000   -48.60000000
  104.83005000   -32.35513000   -48.60000000
  104.82636000   -32.35521000   -48.60000000
  104.82267000   -32.35529000   -48.60000000
  104.81895000   -32.35537000   -48.40000000
  104.81523000   -32.35545000   -47.90000000
  104.81152000   -32.35553000   -48.10000000
  104.80780000   -32.35561000   -46.60000000
  104.80408000   -32.35569000   -47.10000000
  104.80036000   -32.35577000   -46.40000000
  104.79664000   -32.35585000   -46.60000000
  104.79292000   -32.35593000   -45.60000000
  104.78920000   -32.35601000   -44.60000000
  104.78548000   -32.35609000   -42.60000000
  104.78176000   -32.35616000   -43.70000000
  104.77804000   -32.35622000   -43.90000000
  104.77431000   -32.35629000   -42.60000000
  104.77059000   -32.35635000   -40.90000000
  104.76687000   -32.35642000   -42.50000000
  104.76314000   -32.35648000   -41.40000000
  104.75942000   -32.35655000   -41.20000000
  104.75570000   -32.35661000   -40.30000000
  104.75197000   -32.35668000   -40.30000000
  104.74825000   -32.35674000   -39.60000000
  104.74453000   -32.35681000   -39.50000000
  104.74082000   -32.35688000   -38.20000000
  104.73710000   -32.35695000   -40.10000000
  104.73338000   -32.35701000   -38.90000000
  104.72966000   -32.35708000   -40.40000000
  104.72595000   -32.35715000   -38.60000000
  104.72223000   -32.35722000   -37.90000000
  104.71851000   -32.35728000   -37.40000000
  104.71479000   -32.35735000   -37.50000000
  104.71108000   -32.35742000   -36.00000000
  104.70737000   -32.35752000   -37.60000000
  104.70366000   -32.35761000   -36.60000000
  104.70002000   -32.35785000   -37.40000000
  104.69638000   -32.35809000   -37.00000000
  104.69275000   -32.35833000   -36.50000000
  104.68911000   -32.35857000   -38.40000000
  104.68547000   -32.35881000   -36.50000000
  104.68183000   -32.35905000   -36.80000000
  104.67819000   -32.35929000   -36.80000000
  104.67455000   -32.35953000   -36.60000000
  104.67092000   -32.35977000   -37.00000000
  104.66728000   -32.36001000   -37.40000000
  104.66365000   -32.36023000   -37.60000000
  104.66002000   -32.36046000   -38.50000000
  104.65638000   -32.36068000   -40.20000000
  104.65275000   -32.36090000   -39.90000000
  104.64912000   -32.36113000   -41.00000000
  104.64549000   -32.36135000   -40.20000000
  104.64186000   -32.36158000   -40.10000000
  104.63823000   -32.36180000   -41.10000000
  104.63460000   -32.36202000   -41.60000000
  104.63097000   -32.36225000   -41.40000000
  104.62731000   -32.36246000   -43.40000000
  104.62365000   -32.36268000   -43.20000000
  104.61998000   -32.36289000   -43.10000000
  104.61632000   -32.36310000   -44.40000000
  104.61266000   -32.36332000   -44.40000000
  104.60900000   -32.36353000   -44.50000000
  104.60534000   -32.36375000   -44.80000000
  104.60168000   -32.36396000   -45.50000000
  104.59802000   -32.36417000   -45.80000000
  104.59436000   -32.36439000   -46.00000000
  104.59072000   -32.36460000   -46.60000000
  104.58709000   -32.36481000   -47.00000000
  104.58346000   -32.36503000   -47.70000000
  104.57983000   -32.36524000   -48.40000000
  104.57620000   -32.36545000   -48.60000000
  104.57257000   -32.36567000   -48.60000000
  104.56894000   -32.36588000   -48.70000000
  104.56531000   -32.36609000   -48.40000000
  104.56168000   -32.36630000   -49.70000000
  104.55805000   -32.36652000   -49.40000000
  104.55439000   -32.36673000   -49.30000000
  104.55074000   -32.36694000   -49.30000000
  104.54709000   -32.36716000   -48.90000000
  104.54344000   -32.36737000   -50.40000000
  104.53979000   -32.36758000   -50.40000000
  104.53614000   -32.36780000   -50.40000000
  104.53249000   -32.36801000   -52.10000000
  104.52883000   -32.36823000   -52.20000000
  104.52518000   -32.36844000   -52.10000000
  104.52153000   -32.36865000   -50.80000000
  104.51791000   -32.36888000   -51.90000000
  104.51428000   -32.36910000   -51.20000000
  104.51066000   -32.36932000   -51.50000000
  104.50703000   -32.36954000   -51.30000000
  104.50341000   -32.36977000   -51.70000000
  104.49979000   -32.36999000   -51.60000000
  104.49616000   -32.37021000   -51.00000000
  104.49254000   -32.37043000   -51.30000000
  104.48891000   -32.37066000   -50.70000000
  104.48529000   -32.37088000   -50.50000000
  104.48166000   -32.37111000   -51.40000000
  104.47803000   -32.37133000   -50.70000000
  104.47440000   -32.37156000   -50.50000000
  104.47077000   -32.37178000   -49.10000000
  104.46714000   -32.37201000   -49.90000000
  104.46351000   -32.37224000   -48.00000000
  104.45988000   -32.37246000   -49.70000000
  104.45625000   -32.37269000   -47.90000000
  104.45262000   -32.37291000   -48.40000000
  104.44898000   -32.37314000   -48.40000000
  104.44536000   -32.37337000   -47.10000000
  104.44174000   -32.37360000   -48.50000000
  104.43811000   -32.37383000   -46.50000000
  104.43449000   -32.37406000   -47.80000000
  104.43086000   -32.37430000   -46.90000000
  104.42724000   -32.37453000   -45.90000000
  104.42362000   -32.37476000   -45.50000000
  104.41999000   -32.37499000   -44.90000000
  104.41637000   -32.37522000   -44.70000000
  104.41274000   -32.37545000   -45.20000000
  104.40907000   -32.37566000   -44.20000000
  104.40540000   -32.37588000   -44.60000000
  104.40172000   -32.37609000   -44.50000000
  104.39805000   -32.37630000   -45.10000000
  104.39437000   -32.37652000   -44.20000000
  104.39070000   -32.37673000   -44.40000000
  104.38703000   -32.37694000   -43.30000000
  104.38335000   -32.37715000   -44.60000000
  104.37968000   -32.37737000   -45.20000000
  104.37600000   -32.37758000   -43.30000000
  104.37235000   -32.37780000   -44.20000000
  104.36870000   -32.37803000   -43.40000000
  104.36505000   -32.37825000   -43.00000000
  104.36140000   -32.37848000   -42.40000000
  104.35775000   -32.37870000   -42.20000000
  104.35410000   -32.37893000   -43.70000000
  104.35045000   -32.37915000   -43.70000000
  104.34680000   -32.37938000   -44.00000000
  104.34315000   -32.37960000   -44.60000000
  104.33950000   -32.37983000   -44.40000000
  104.33587000   -32.38004000   -43.90000000
  104.33224000   -32.38026000   -43.20000000
  104.32862000   -32.38047000   -45.20000000
  104.32499000   -32.38069000   -44.00000000
  104.32137000   -32.38091000   -44.30000000
  104.31774000   -32.38112000   -45.10000000
  104.31412000   -32.38134000   -45.80000000
  104.31049000   -32.38155000   -46.30000000
  104.30687000   -32.38177000   -44.70000000
  104.30324000   -32.38198000   -45.00000000
  104.29973000   -32.38222000   -44.80000000
  104.29621000   -32.38245000   -44.90000000
  104.29270000   -32.38269000   -44.50000000
  104.28919000   -32.38292000   -46.80000000
  104.28567000   -32.38315000   -45.80000000
  104.28216000   -32.38339000   -44.40000000
  104.27865000   -32.38362000   -48.20000000
  104.27513000   -32.38386000   -47.00000000
  104.27162000   -32.38409000   -46.00000000
  104.26811000   -32.38433000   -46.50000000
  104.26456000   -32.38452000   -45.90000000
  104.26101000   -32.38470000   -47.20000000
  104.25746000   -32.38489000   -47.70000000
  104.25390000   -32.38507000   -47.20000000
  104.25035000   -32.38526000   -47.30000000
  104.24680000   -32.38545000   -46.70000000
  104.24325000   -32.38563000   -48.20000000
  104.23970000   -32.38582000   -47.50000000
  104.23615000   -32.38600000   -48.50000000
  104.23260000   -32.38619000   -48.90000000
  104.22903000   -32.38637000   -48.60000000
  104.22547000   -32.38656000   -47.50000000
  104.22190000   -32.38674000   -47.50000000
  104.21833000   -32.38693000   -49.40000000
  104.21477000   -32.38711000   -47.90000000
  104.21120000   -32.38729000   -47.90000000
  104.20763000   -32.38748000   -47.90000000
  104.20407000   -32.38766000   -48.70000000
  104.20050000   -32.38784000   -47.40000000
  104.19693000   -32.38803000   -47.20000000
  104.19337000   -32.38823000   -49.20000000
  104.18981000   -32.38843000   -47.60000000
  104.18625000   -32.38864000   -48.10000000
  104.18269000   -32.38884000   -48.40000000
  104.17912000   -32.38905000   -47.50000000
  104.17556000   -32.38925000   -46.50000000
  104.17200000   -32.38946000   -47.50000000
  104.16844000   -32.38966000   -47.20000000
  104.16487000   -32.38987000   -48.20000000
  104.16131000   -32.39007000   -47.40000000
  104.15770000   -32.39027000   -48.20000000
  104.15407000   -32.39048000   -48.20000000
  104.15045000   -32.39068000   -47.70000000
  104.14683000   -32.39088000   -46.70000000
  104.14321000   -32.39108000   -48.40000000
  104.13959000   -32.39128000   -47.90000000
  104.13597000   -32.39148000   -48.40000000
  104.13235000   -32.39168000   -47.50000000
  104.12873000   -32.39188000   -49.10000000
  104.12511000   -32.39208000   -48.40000000
  104.12153000   -32.39228000   -49.50000000
  104.11795000   -32.39247000   -49.70000000
  104.11437000   -32.39266000   -48.70000000
  104.11079000   -32.39286000   -49.00000000
  104.10721000   -32.39305000   -49.90000000
  104.10363000   -32.39324000   -49.50000000
  104.10005000   -32.39343000   -51.50000000
  104.09647000   -32.39363000   -50.20000000
  104.09289000   -32.39382000   -50.10000000
  104.08931000   -32.39401000   -49.90000000
  104.08571000   -32.39422000   -51.80000000
  104.08212000   -32.39442000   -51.30000000
  104.07852000   -32.39463000   -51.70000000
  104.07493000   -32.39483000   -50.30000000
  104.07133000   -32.39504000   -50.60000000
  104.06774000   -32.39525000   -52.30000000
  104.06414000   -32.39545000   -51.20000000
  104.06055000   -32.39566000   -52.80000000
  104.05695000   -32.39586000   -52.10000000
  104.05336000   -32.39607000   -53.00000000
  104.04975000   -32.39627000   -52.30000000
  104.04614000   -32.39647000   -53.20000000
  104.04253000   -32.39667000   -52.70000000
  104.03892000   -32.39686000   -53.20000000
  104.03531000   -32.39706000   -54.00000000
  104.03170000   -32.39726000   -54.60000000
  104.02810000   -32.39746000   -55.60000000
  104.02449000   -32.39766000   -54.30000000
  104.02088000   -32.39786000   -54.60000000
  104.01727000   -32.39805000   -55.00000000
  104.01371000   -32.39825000   -56.30000000
  104.01015000   -32.39845000   -54.30000000
  104.00660000   -32.39865000   -54.70000000
  104.00304000   -32.39885000   -55.20000000
  103.99948000   -32.39905000   -54.80000000
  103.99593000   -32.39925000   -55.20000000
  103.99237000   -32.39945000   -55.30000000
  103.98881000   -32.39964000   -55.50000000
  103.98526000   -32.39984000   -56.80000000
  103.98170000   -32.40004000   -54.90000000
  103.97811000   -32.40024000   -54.90000000
  103.97453000   -32.40044000   -57.20000000
  103.97094000   -32.40064000   -56.70000000
  103.96735000   -32.40084000   -55.50000000
  103.96376000   -32.40104000   -56.00000000
  103.96017000   -32.40124000   -57.00000000
  103.95658000   -32.40144000   -56.90000000
  103.95299000   -32.40164000   -57.20000000
  103.94940000   -32.40184000   -58.00000000
  103.94581000   -32.40204000   -57.50000000
  103.94220000   -32.40223000   -57.80000000
  103.93859000   -32.40242000   -57.40000000
  103.93498000   -32.40261000   -57.70000000
  103.93136000   -32.40280000   -58.20000000
  103.92775000   -32.40299000   -59.70000000
  103.92414000   -32.40318000   -58.00000000
  103.92052000   -32.40337000   -59.00000000
  103.91691000   -32.40356000   -59.90000000
  103.91330000   -32.40375000   -58.50000000
  103.90968000   -32.40394000   -59.80000000
  103.90608000   -32.40415000   -59.30000000
  103.90247000   -32.40437000   -58.60000000
  103.89887000   -32.40458000   -59.00000000
  103.89526000   -32.40480000   -58.50000000
  103.89166000   -32.40501000   -58.50000000
  103.88805000   -32.40523000   -60.10000000
  103.88445000   -32.40544000   -59.70000000
  103.88084000   -32.40566000   -59.40000000
  103.87724000   -32.40587000   -62.30000000
  103.87363000   -32.40609000   -61.90000000
  103.87002000   -32.40631000   -60.70000000
  103.86640000   -32.40653000   -60.40000000
  103.86278000   -32.40675000   -60.90000000
  103.85917000   -32.40697000   -60.60000000
  103.85555000   -32.40719000   -61.00000000
  103.85193000   -32.40741000   -60.00000000
  103.84831000   -32.40763000   -61.10000000
  103.84470000   -32.40785000   -61.10000000
  103.84108000   -32.40807000   -61.20000000
  103.83746000   -32.40829000   -60.90000000
  103.83382000   -32.40851000   -60.10000000
  103.83018000   -32.40872000   -61.00000000
  103.82653000   -32.40894000   -61.10000000
  103.82289000   -32.40915000   -60.80000000
  103.81924000   -32.40937000   -61.00000000
  103.81560000   -32.40958000   -60.90000000
  103.81195000   -32.40980000   -60.50000000
  103.80831000   -32.41001000   -60.80000000
  103.80466000   -32.41023000   -60.50000000
  103.80102000   -32.41044000   -60.70000000
  103.79743000   -32.41066000   -60.30000000
  103.79384000   -32.41087000   -60.70000000
  103.79025000   -32.41108000   -59.60000000
  103.78667000   -32.41130000   -61.70000000
  103.78308000   -32.41151000   -61.80000000
  103.77949000   -32.41173000   -60.70000000
  103.77590000   -32.41194000   -61.20000000
  103.77231000   -32.41216000   -60.30000000
  103.76872000   -32.41237000   -60.20000000
  103.76513000   -32.41259000   -61.90000000
  103.76155000   -32.41282000   -61.00000000
  103.75797000   -32.41306000   -60.40000000
  103.75438000   -32.41330000   -58.90000000
  103.75080000   -32.41353000   -60.70000000
  103.74722000   -32.41377000   -61.50000000
  103.74363000   -32.41401000   -60.70000000
  103.74005000   -32.41424000   -59.80000000
  103.73647000   -32.41448000   -61.20000000
  103.73288000   -32.41472000   -59.20000000
  103.72930000   -32.41495000   -60.60000000
  103.72572000   -32.41514000   -60.00000000
  103.72215000   -32.41531000   -60.20000000
  103.71857000   -32.41549000   -60.20000000
  103.71500000   -32.41567000   -61.50000000
  103.71142000   -32.41584000   -61.30000000
  103.70784000   -32.41602000   -60.30000000
  103.70427000   -32.41620000   -60.20000000
  103.70069000   -32.41637000   -60.90000000
  103.69712000   -32.41655000   -61.00000000
  103.69354000   -32.41673000   -61.00000000
  103.68997000   -32.41688000   -60.20000000
  103.68641000   -32.41704000   -61.00000000
  103.68284000   -32.41719000   -60.00000000
  103.67927000   -32.41735000   -60.20000000
  103.67571000   -32.41750000   -60.80000000
  103.67214000   -32.41766000   -61.40000000
  103.66858000   -32.41781000   -60.60000000
  103.66501000   -32.41797000   -61.30000000
  103.66144000   -32.41812000   -62.00000000
  103.65788000   -32.41828000   -60.70000000
  103.65435000   -32.41841000   -59.70000000
  103.65082000   -32.41854000   -60.00000000
  103.64730000   -32.41868000   -62.00000000
  103.64377000   -32.41881000   -59.60000000
  103.64025000   -32.41894000   -60.90000000
  103.63672000   -32.41907000   -62.40000000
  103.63319000   -32.41921000   -61.40000000
  103.62967000   -32.41934000   -61.90000000
  103.62614000   -32.41947000   -62.10000000
  103.62261000   -32.41961000   -61.60000000
  103.61903000   -32.41978000   -61.00000000
  103.61544000   -32.41996000   -62.90000000
  103.61185000   -32.42014000   -62.60000000
  103.60826000   -32.42031000   -61.10000000
  103.60467000   -32.42049000   -61.80000000
  103.60108000   -32.42067000   -61.50000000
  103.59750000   -32.42085000   -62.30000000
  103.59391000   -32.42102000   -62.20000000
  103.59032000   -32.42120000   -63.00000000
  103.58673000   -32.42138000   -63.50000000
  103.58317000   -32.42155000   -63.40000000
  103.57960000   -32.42172000   -63.00000000
  103.57604000   -32.42190000   -64.00000000
  103.57248000   -32.42207000   -63.80000000
  103.56892000   -32.42224000   -64.00000000
  103.56535000   -32.42242000   -63.00000000
  103.56179000   -32.42259000   -63.30000000
  103.55823000   -32.42276000   -64.30000000
  103.55467000   -32.42293000   -63.80000000
  103.55111000   -32.42311000   -65.30000000
  103.54754000   -32.42325000   -64.90000000
  103.54397000   -32.42340000   -64.30000000
  103.54040000   -32.42354000   -64.10000000
  103.53683000   -32.42369000   -64.10000000
  103.53326000   -32.42383000   -63.50000000
  103.52969000   -32.42397000   -64.60000000
  103.52612000   -32.42412000   -65.30000000
  103.52255000   -32.42426000   -65.60000000
  103.51898000   -32.42441000   -65.30000000
  103.51542000   -32.42455000   -64.50000000
  103.51184000   -32.42467000   -65.40000000
  103.50825000   -32.42479000   -65.30000000
  103.50467000   -32.42491000   -65.10000000
  103.50109000   -32.42504000   -65.10000000
  103.49751000   -32.42516000   -65.60000000
  103.49393000   -32.42528000   -66.60000000
  103.49035000   -32.42540000   -65.40000000
  103.48677000   -32.42552000   -67.40000000
  103.48319000   -32.42564000   -65.90000000
  103.47960000   -32.42576000   -66.00000000
  103.47601000   -32.42590000   -66.00000000
  103.47242000   -32.42604000   -66.60000000
  103.46882000   -32.42618000   -65.10000000
  103.46523000   -32.42632000   -65.50000000
  103.46163000   -32.42646000   -67.00000000
  103.45804000   -32.42660000   -65.80000000
  103.45444000   -32.42674000   -64.30000000
  103.45085000   -32.42688000   -64.10000000
  103.44725000   -32.42702000   -65.60000000
  103.44366000   -32.42716000   -65.60000000
  103.44005000   -32.42730000   -65.00000000
  103.43645000   -32.42744000   -65.10000000
  103.43284000   -32.42757000   -64.10000000
  103.42923000   -32.42771000   -64.30000000
  103.42563000   -32.42785000   -65.00000000
  103.42202000   -32.42798000   -64.10000000
  103.41841000   -32.42812000   -64.40000000
  103.41481000   -32.42826000   -63.80000000
  103.41120000   -32.42840000   -63.10000000
  103.40760000   -32.42853000   -63.80000000
  103.40404000   -32.42869000   -63.60000000
  103.40048000   -32.42884000   -62.50000000
  103.39692000   -32.42899000   -62.20000000
  103.39336000   -32.42914000   -62.40000000
  103.38980000   -32.42929000   -63.60000000
  103.38624000   -32.42944000   -63.50000000
  103.38268000   -32.42959000   -62.10000000
  103.37912000   -32.42974000   -63.10000000
  103.37556000   -32.42989000   -63.50000000
  103.37200000   -32.43004000   -63.80000000
  103.36843000   -32.43015000   -63.30000000
  103.36485000   -32.43026000   -62.30000000
  103.36128000   -32.43037000   -63.10000000
  103.35771000   -32.43048000   -64.00000000
  103.35414000   -32.43059000   -62.80000000
  103.35057000   -32.43070000   -64.50000000
  103.34700000   -32.43081000   -62.60000000
  103.34343000   -32.43092000   -63.10000000
  103.33986000   -32.43102000   -63.10000000
  103.33629000   -32.43113000   -63.00000000
  103.33271000   -32.43127000   -62.30000000
  103.32914000   -32.43142000   -63.80000000
  103.32556000   -32.43156000   -62.80000000
  103.32199000   -32.43170000   -62.70000000
  103.31841000   -32.43184000   -63.40000000
  103.31483000   -32.43199000   -65.30000000
  103.31126000   -32.43213000   -64.10000000
  103.30768000   -32.43227000   -63.10000000
  103.30411000   -32.43241000   -63.10000000
  103.30053000   -32.43256000   -64.50000000
  103.29697000   -32.43270000   -63.80000000
  103.29340000   -32.43285000   -63.60000000
  103.28983000   -32.43299000   -63.10000000
  103.28626000   -32.43314000   -63.20000000
  103.28269000   -32.43328000   -63.10000000
  103.27912000   -32.43343000   -63.70000000
  103.27556000   -32.43357000   -63.80000000
  103.27199000   -32.43372000   -63.90000000
  103.26842000   -32.43386000   -63.20000000
  103.26485000   -32.43401000   -63.10000000
  103.26125000   -32.43414000   -62.80000000
  103.25764000   -32.43428000   -63.80000000
  103.25404000   -32.43441000   -63.40000000
  103.25044000   -32.43455000   -63.60000000
  103.24683000   -32.43468000   -63.60000000
  103.24323000   -32.43482000   -63.10000000
  103.23962000   -32.43495000   -63.00000000
  103.23602000   -32.43509000   -62.70000000
  103.23241000   -32.43522000   -63.10000000
  103.22881000   -32.43536000   -63.10000000
  103.22524000   -32.43549000   -62.60000000
  103.22167000   -32.43562000   -62.70000000
  103.21811000   -32.43575000   -63.00000000
  103.21454000   -32.43588000   -63.40000000
  103.21097000   -32.43601000   -63.10000000
  103.20740000   -32.43614000   -63.50000000
  103.20384000   -32.43627000   -62.70000000
  103.20027000   -32.43641000   -61.90000000
  103.19670000   -32.43654000   -63.10000000
  103.19313000   -32.43667000   -62.40000000
  103.18957000   -32.43679000   -62.60000000
  103.18600000   -32.43690000   -61.60000000
  103.18243000   -32.43702000   -62.10000000
  103.17886000   -32.43714000   -61.50000000
  103.17530000   -32.43726000   -60.40000000
  103.17173000   -32.43737000   -62.60000000
  103.16816000   -32.43749000   -62.20000000
  103.16459000   -32.43761000   -60.40000000
  103.16103000   -32.43773000   -61.60000000
  103.15746000   -32.43785000   -61.20000000
  103.15390000   -32.43794000   -60.40000000
  103.15035000   -32.43804000   -59.90000000
  103.14679000   -32.43814000   -60.80000000
  103.14323000   -32.43824000   -59.90000000
  103.13968000   -32.43833000   -60.30000000
  103.13612000   -32.43843000   -61.10000000
  103.13257000   -32.43853000   -60.00000000
  103.12901000   -32.43862000   -58.30000000
  103.12545000   -32.43872000   -60.30000000
  103.12190000   -32.43882000   -59.80000000
  103.11832000   -32.43891000   -59.30000000
  103.11474000   -32.43901000   -59.30000000
  103.11116000   -32.43911000   -59.40000000
