  129.41520000   -12.11650000     1.80000000
  129.37480000   -12.10880000     3.10000000
  129.33440000   -12.10120000    -0.90000000
  129.29400000   -12.09360000    -2.80000000
  129.21320000   -12.07840000    -2.30000000
  129.17280000   -12.07080000    -0.90000000
  129.13240000   -12.06320000     1.60000000
  129.09200000   -12.05560000     1.80000000
  129.05160000   -12.04800000     1.00000000
  129.01120000   -12.04040000     0.20000000
  128.97080000   -12.03280000    -0.60000000
  128.93040000   -12.02520000    -1.30000000
  128.89000000   -12.01760000     0.10000000
  128.84960000   -12.01000000    -0.90000000
  128.80920000   -12.00240000    -0.60000000
  128.76880000   -11.99470000     0.90000000
  128.72840000   -11.98710000     3.30000000
  128.68800000   -11.97950000     5.80000000
  128.64760000   -11.97190000     8.20000000
  128.60720000   -11.96430000     9.60000000
  128.56680000   -11.95670000    11.90000000
  128.52640000   -11.94910000    13.30000000
  128.48600000   -11.94150000    16.80000000
  128.44560000   -11.93390000    19.30000000
  128.40520000   -11.92630000    20.50000000
  128.36480000   -11.91870000    24.00000000
  128.32440000   -11.91110000    24.30000000
  128.28400000   -11.90350000    23.50000000
  128.24360000   -11.89590000    21.60000000
  128.20320000   -11.88830000    21.90000000
  128.16280000   -11.88070000    24.30000000
  128.12240000   -11.87300000    24.60000000
  128.08200000   -11.86540000    23.80000000
  128.04160000   -11.85780000    24.10000000
  128.00120000   -11.85020000    24.30000000
  127.96080000   -11.84260000    21.40000000
  127.92040000   -11.83500000    19.50000000
  127.88000000   -11.82740000    20.90000000
  127.83960000   -11.81980000    22.30000000
  127.79920000   -11.81220000    22.50000000
  127.75880000   -11.80460000    22.80000000
  127.71840000   -11.79700000    25.30000000
  127.67800000   -11.78940000    27.60000000
  127.63760000   -11.78180000    30.00000000
  127.59720000   -11.77420000    30.30000000
  127.55680000   -11.76660000    30.60000000
  127.51640000   -11.75900000    29.80000000
  127.47600000   -11.75130000    29.00000000
  127.43560000   -11.74370000    28.30000000
  127.39520000   -11.73610000    27.40000000
  127.35480000   -11.72850000    27.60000000
  127.31440000   -11.72090000    27.90000000
  127.27400000   -11.71330000    28.30000000
  127.23360000   -11.70570000    28.50000000
  127.19320000   -11.69810000    28.80000000
  127.15280000   -11.69050000    29.00000000
  127.11240000   -11.68290000    30.30000000
  127.07200000   -11.67530000    31.80000000
  127.03160000   -11.66770000    33.00000000
  126.99120000   -11.66010000    35.50000000
  126.95080000   -11.65250000    39.00000000
  126.91040000   -11.64490000    39.30000000
  126.86990000   -11.63720000    40.60000000
  126.82960000   -11.62960000    42.00000000
  126.78910000   -11.62200000    40.00000000
  126.74870000   -11.61440000    40.30000000
  126.70840000   -11.60680000    38.50000000
  126.66790000   -11.59920000    35.50000000
  126.62750000   -11.59160000    35.80000000
  126.58710000   -11.58400000    38.30000000
  126.54670000   -11.57640000    43.80000000
  126.50630000   -11.56880000    45.10000000
  126.46590000   -11.56120000    45.50000000
  126.42550000   -11.55360000    45.80000000
  126.38510000   -11.54600000    42.80000000
  126.34470000   -11.53840000    42.00000000
  126.30430000   -11.53080000    43.30000000
  126.26390000   -11.52320000    43.50000000
  126.22350000   -11.51550000    45.00000000
  126.18310000   -11.50790000    45.10000000
  126.14270000   -11.50030000    43.30000000
  126.10230000   -11.49270000    42.50000000
  126.06190000   -11.48510000    40.60000000
  126.02150000   -11.47750000    40.80000000
  125.98110000   -11.46990000    39.00000000
  125.94070000   -11.46230000    38.10000000
  125.90030000   -11.45470000    38.50000000
  125.85990000   -11.44710000    38.80000000
  125.81950000   -11.43950000    39.00000000
  125.77910000   -11.43190000    40.30000000
  125.73870000   -11.42430000    39.50000000
  125.69830000   -11.41670000    37.60000000
  125.65890000   -11.41090000    37.10000000
  125.61960000   -11.40510000    35.30000000
  125.58020000   -11.39930000    34.30000000
  125.54080000   -11.39350000    33.50000000
  125.50140000   -11.38770000    32.60000000
  125.46210000   -11.38190000    32.80000000
  125.42270000   -11.37610000    29.80000000
  125.38330000   -11.37030000    24.60000000
  125.34400000   -11.36450000    19.40000000
  125.26520000   -11.35290000    10.40000000
  125.22580000   -11.34710000     8.40000000
  125.18650000   -11.34130000     6.50000000
  125.14710000   -11.33550000     3.50000000
  125.10770000   -11.32970000     1.40000000
  125.06830000   -11.32390000    -0.60000000
  125.02900000   -11.31810000    -0.40000000
  124.98960000   -11.31230000     1.00000000
  124.95020000   -11.30650000     4.50000000
  124.91080000   -11.30070000    10.10000000
  124.87150000   -11.29500000    14.40000000
  124.83210000   -11.28920000    17.90000000
  124.79270000   -11.28340000    23.40000000
  124.75330000   -11.27760000    29.00000000
  124.71400000   -11.27180000    32.50000000
  124.67460000   -11.26600000    32.60000000
  124.63520000   -11.26020000    35.00000000
  124.62210000   -11.25820000    38.30000000
  124.60900000   -11.25630000    40.50000000
  124.59590000   -11.25440000    43.70000000
  124.56960000   -11.25050000    49.30000000
  124.54340000   -11.24670000    48.30000000
  124.51710000   -11.24280000    47.50000000
  124.49090000   -11.23890000    41.10000000
  124.46460000   -11.23510000    37.00000000
  124.43840000   -11.23120000    26.30000000
  124.41210000   -11.22730000    12.60000000
  124.38590000   -11.22350000     7.40000000
  124.35960000   -11.21960000     6.40000000
  124.33340000   -11.21570000     0.10000000
  124.30710000   -11.21190000    -3.10000000
  124.28090000   -11.20800000    -6.20000000
  124.25460000   -11.20410000    -9.40000000
  124.22840000   -11.20030000   -12.40000000
  124.20210000   -11.19640000   -15.40000000
  124.17590000   -11.19260000   -20.80000000
  124.16270000   -11.19060000   -23.80000000
  124.04460000   -11.17320000   -33.00000000
  124.00520000   -11.16740000   -39.10000000
  124.16730000   -11.19100000   -28.30000000
  124.13780000   -11.18720000   -29.10000000
  124.09340000   -11.18150000   -32.30000000
  124.06390000   -11.17780000   -38.50000000
  124.03430000   -11.17400000   -43.70000000
  124.00480000   -11.17020000   -49.00000000
  123.97520000   -11.16640000   -52.00000000
  123.94570000   -11.16260000   -56.20000000
  123.91610000   -11.15890000   -59.30000000
  123.87180000   -11.15320000   -61.30000000
  123.82750000   -11.14750000   -63.30000000
  123.78310000   -11.14180000   -63.00000000
  123.73880000   -11.13620000   -62.80000000
  123.69450000   -11.13050000   -64.90000000
  123.65020000   -11.12480000   -71.10000000
  123.60580000   -11.11920000   -74.10000000
  123.56150000   -11.11350000   -78.20000000
  123.29550000   -11.07950000   -87.80000000
  123.26600000   -11.07570000   -84.50000000
  123.23640000   -11.07190000   -79.00000000
  123.20690000   -11.06810000   -71.30000000
  123.17730000   -11.06430000   -59.30000000
  123.10340000   -11.05490000   -26.80000000
  123.07390000   -11.05110000   -18.10000000
  123.02960000   -11.04540000   -11.40000000
  123.00300000   -11.04200000    -2.80000000
  123.00000000   -11.07220000     6.60000000
  123.00000000   -11.10270000     0.20000000
  123.00000000   -11.13320000    -5.30000000
  123.00000000   -11.16370000   -11.70000000
  123.00000000   -11.19420000   -22.30000000
  123.00000000   -11.22470000   -33.00000000
  123.00000000   -11.25520000   -37.30000000
  123.00000000   -11.28570000   -34.00000000
  123.00000000   -11.31620000   -28.80000000
  123.00000000   -11.34670000   -23.30000000
  123.00000000   -11.37720000   -19.00000000
  122.94290000   -11.37680000   -29.40000000
  122.85300000   -11.36020000   -20.80000000
  122.82350000   -11.35430000   -21.80000000
  122.79410000   -11.34840000   -23.60000000
  122.73520000   -11.33660000   -26.40000000
  122.70570000   -11.33060000   -24.10000000
  122.67620000   -11.32470000   -21.80000000
  122.64680000   -11.31880000   -20.50000000
  122.61730000   -11.31290000   -24.50000000
  122.58780000   -11.30700000   -24.30000000
  122.55840000   -11.30110000   -20.90000000
  122.51420000   -11.29220000   -19.50000000
  122.47000000   -11.28330000   -20.30000000
  122.42550000   -11.27390000   -18.30000000
  122.38110000   -11.26440000   -16.90000000
  122.33670000   -11.25490000   -20.90000000
  122.29220000   -11.24540000   -25.80000000
  122.26260000   -11.23910000   -27.80000000
  122.23300000   -11.23280000   -34.00000000
  122.20330000   -11.22650000   -37.00000000
  122.15890000   -11.21700000   -34.50000000
  122.11440000   -11.20750000   -33.10000000
  122.07000000   -11.19800000   -30.60000000
  122.02560000   -11.18860000   -26.00000000
  121.99370000   -11.18290000   -24.30000000
  121.96500000   -11.17820000   -23.10000000
  121.93630000   -11.17340000   -22.90000000
  121.90750000   -11.16870000   -21.80000000
  121.87880000   -11.16400000   -19.40000000
  121.83720000   -11.15630000   -11.80000000
  121.79360000   -11.14810000    -9.40000000
  121.75000000   -11.14000000    -4.80000000
  121.70630000   -11.13180000    -4.50000000
  121.66270000   -11.12360000    -6.40000000
  121.63370000   -11.11820000    -8.40000000
  121.60460000   -11.11280000    -5.00000000
  121.57550000   -11.10730000    -0.50000000
  121.54640000   -11.10190000     4.20000000
  121.51730000   -11.09650000     6.50000000
  121.48830000   -11.09100000     6.70000000
  121.44390000   -11.08290000    -8.40000000
  121.42630000   -11.07970000   -15.80000000
  121.40880000   -11.07660000   -25.30000000
  121.40000000   -11.07500000   -29.50000000
  121.35140000   -11.06390000   -50.50000000
  121.31900000   -11.05650000   -50.30000000
  121.28660000   -11.04910000   -51.10000000
  121.25420000   -11.04170000   -45.50000000
  121.22170000   -11.03430000   -37.80000000
  121.18930000   -11.02690000   -30.00000000
  121.17310000   -11.02310000   -23.40000000
  121.14880000   -11.03450000    -8.10000000
  121.12660000   -11.05050000     1.10000000
  121.10430000   -11.06650000     3.80000000
  121.09320000   -11.07450000    10.10000000
  121.07090000   -11.09060000    21.30000000
  121.04870000   -11.10660000    20.80000000
  121.02640000   -11.12260000    14.90000000
  121.00420000   -11.13860000     5.70000000
  120.98190000   -11.15460000    -1.30000000
  120.95960000   -11.17060000   -10.60000000
  120.92620000   -11.19470000   -12.40000000
  120.89290000   -11.21870000   -13.30000000
  120.85950000   -11.24270000   -11.90000000
  120.82610000   -11.26680000   -10.60000000
  120.79270000   -11.29080000    -9.30000000
  120.75930000   -11.31480000   -17.60000000
  120.72590000   -11.33890000   -24.80000000
  120.69250000   -11.36290000   -31.00000000
  120.65910000   -11.38690000   -36.30000000
  120.62570000   -11.41090000   -33.80000000
  120.59230000   -11.43500000   -30.30000000
  120.55900000   -11.45900000   -31.20000000
  120.52560000   -11.48300000   -30.90000000
  120.49220000   -11.50710000   -29.60000000
  120.45880000   -11.53110000   -32.60000000
  120.42540000   -11.55510000   -37.80000000
  120.39200000   -11.57920000   -40.80000000
  120.35860000   -11.60320000   -46.00000000
  120.32520000   -11.62720000   -49.00000000
  120.29180000   -11.65120000   -45.50000000
  120.17850000   -11.73240000   -41.10000000
  120.13860000   -11.68060000     3.00000000
  120.13780000   -11.66800000    -3.10000000
  120.13700000   -11.65530000    -8.10000000
  120.13620000   -11.64260000   -10.90000000
  120.13540000   -11.62990000   -12.60000000
  120.13460000   -11.61730000   -16.30000000
  120.13390000   -11.60460000   -18.00000000
  120.13230000   -11.57930000   -23.60000000
  120.13070000   -11.55390000   -29.10000000
  120.12910000   -11.52860000   -35.80000000
  120.12750000   -11.50320000   -40.30000000
  120.12600000   -11.47790000   -43.60000000
  120.12440000   -11.45250000   -47.00000000
  120.12200000   -11.41450000   -47.80000000
  120.11970000   -11.37650000   -45.50000000
  120.11730000   -11.33850000   -44.10000000
  120.09270000   -11.34920000   -56.80000000
  120.07100000   -11.36810000   -64.00000000
  120.04930000   -11.38700000   -71.10000000
  120.02750000   -11.40600000   -77.10000000
  120.00580000   -11.42490000   -78.80000000
  119.98400000   -11.44380000   -68.70000000
  119.96230000   -11.46280000   -57.50000000
  119.94060000   -11.48170000   -49.60000000
  119.91880000   -11.50060000   -49.30000000
  119.89710000   -11.51960000   -46.80000000
  119.87540000   -11.53850000   -41.00000000
  119.85360000   -11.55750000   -34.00000000
  119.83190000   -11.57640000   -28.30000000
  119.81010000   -11.59530000   -20.40000000
  119.76670000   -11.63320000     5.20000000
  119.73400000   -11.66160000     6.40000000
  119.57100000   -11.80360000     0.20000000
  119.53840000   -11.83200000     2.30000000
  119.50580000   -11.86040000     4.60000000
  119.47320000   -11.88880000     4.60000000
  119.44060000   -11.91720000     3.50000000
  119.40800000   -11.94560000     4.70000000
  119.39710000   -11.95510000     5.50000000
  119.37540000   -11.97400000     5.80000000
  119.34270000   -12.00250000     9.10000000
  119.31010000   -12.03090000    12.30000000
  119.27750000   -12.05930000    13.40000000
  119.24490000   -12.08770000    12.40000000
  119.21230000   -12.11610000    13.40000000
  119.17970000   -12.14450000    16.60000000
  119.14710000   -12.17290000    18.80000000
  119.11450000   -12.20130000    16.80000000
  119.08190000   -12.22970000    12.40000000
  119.04930000   -12.25810000    12.40000000
  119.01670000   -12.28650000    14.70000000
  118.98400000   -12.31490000    13.60000000
  118.95140000   -12.34330000    11.40000000
  118.91880000   -12.37170000     9.30000000
  118.88620000   -12.40010000     7.20000000
  118.85360000   -12.42850000     7.20000000
  118.82100000   -12.45690000     2.80000000
  118.78840000   -12.48530000    -0.50000000
  118.75580000   -12.51370000    -4.80000000
  118.72320000   -12.54210000    -4.80000000
  118.67970000   -12.58000000    -5.20000000
  118.65800000   -12.59890000    -3.70000000
  118.62540000   -12.62730000    -7.00000000
  118.59270000   -12.65570000    -9.20000000
  118.56010000   -12.68410000   -10.30000000
  118.52750000   -12.71250000    -6.00000000
  118.49490000   -12.74100000    -6.00000000
  118.21400000   -13.00120000     1.90000000
  118.13540000   -13.08660000    -0.20000000
  118.10680000   -13.11280000    -1.20000000
  118.07810000   -13.13900000    -2.30000000
  118.04950000   -13.16530000    -2.30000000
  118.02090000   -13.19150000    -2.30000000
  118.00190000   -13.20900000    -3.00000000
  117.98280000   -13.22640000    -5.80000000
  117.96370000   -13.24390000    -9.70000000
  117.93510000   -13.27010000   -11.90000000
  117.90650000   -13.29640000   -10.80000000
  117.87790000   -13.32260000    -9.70000000
  117.84930000   -13.34880000    -8.60000000
  117.82070000   -13.37500000    -7.50000000
  117.79210000   -13.40120000   -11.80000000
  117.76350000   -13.42750000   -11.80000000
  117.73490000   -13.45370000   -11.80000000
  117.70620000   -13.47990000    -9.60000000
  117.67760000   -13.50610000    -8.40000000
  117.64900000   -13.53240000    -8.40000000
  117.62040000   -13.55860000    -9.60000000
  117.59180000   -13.58480000   -10.70000000
  117.56320000   -13.61100000   -13.90000000
  117.53460000   -13.63720000   -17.00000000
  117.50600000   -13.66350000   -17.00000000
  117.47740000   -13.68970000   -18.10000000
  117.44880000   -13.71590000   -18.10000000
  117.42020000   -13.74210000   -17.10000000
  117.39160000   -13.76840000   -12.90000000
  117.33430000   -13.82080000   -15.10000000
  117.30570000   -13.84700000   -15.10000000
  117.27710000   -13.87320000   -16.10000000
  117.24850000   -13.89950000   -15.20000000
  117.21990000   -13.92570000   -15.20000000
  117.19130000   -13.95190000   -15.20000000
  117.16270000   -13.97810000   -16.30000000
  117.13410000   -14.00430000   -19.50000000
  117.10550000   -14.03060000   -19.50000000
  117.07690000   -14.05680000   -19.50000000
  117.04830000   -14.08300000   -19.60000000
  117.01970000   -14.10920000   -19.60000000
  116.99110000   -14.13550000   -25.00000000
  116.96240000   -14.16170000   -28.30000000
  116.93380000   -14.18790000   -29.40000000
  116.90520000   -14.21410000   -29.50000000
  116.87660000   -14.24030000   -32.80000000
  116.84800000   -14.26660000   -36.00000000
  116.81940000   -14.29280000   -35.00000000
  116.79080000   -14.31900000   -34.00000000
  116.76220000   -14.34520000   -33.00000000
  116.73360000   -14.37140000   -34.10000000
  116.70500000   -14.39770000   -33.10000000
  116.67640000   -14.42390000   -31.00000000
  116.64780000   -14.45010000   -28.90000000
  116.62870000   -14.46760000   -26.50000000
  116.56190000   -14.52880000   -10.90000000
  116.53330000   -14.55500000   -11.10000000
  116.49170000   -14.56440000    -9.40000000
  116.45000000   -14.57370000   -12.10000000
  116.40830000   -14.58310000   -15.70000000
  116.36670000   -14.59250000   -18.30000000
  116.33890000   -14.59870000   -20.60000000
  116.31670000   -14.60410000    -6.50000000
  116.24040000   -14.61830000    -7.90000000
  116.20230000   -14.62820000   -10.40000000
  116.16420000   -14.63820000   -11.90000000
  116.12600000   -14.64820000   -13.40000000
  116.08790000   -14.65820000   -11.80000000
  116.04980000   -14.66810000    -8.00000000
  116.01160000   -14.67810000   -10.40000000
  115.97350000   -14.68810000   -12.10000000
  115.93540000   -14.69800000    -9.30000000
  115.89720000   -14.70800000    -7.60000000
  115.85910000   -14.71800000    -8.00000000
  115.82100000   -14.72800000   -10.60000000
  115.78290000   -14.73790000   -10.90000000
  115.74470000   -14.74790000   -12.40000000
  115.70660000   -14.75790000    -7.60000000
  115.66850000   -14.76780000    -7.00000000
  115.63030000   -14.77780000    -7.40000000
  115.59220000   -14.78780000    -6.80000000
  115.55410000   -14.79770000    -7.20000000
  115.51600000   -14.80770000    -7.70000000
  115.49050000   -14.81440000    -5.80000000
  115.46510000   -14.82100000    -7.20000000
  115.43970000   -14.82770000    -9.70000000
  115.41430000   -14.83430000   -12.10000000
  115.38890000   -14.84100000   -11.30000000
  115.36340000   -14.84760000   -10.40000000
  115.32530000   -14.85760000    -8.70000000
  115.28720000   -14.86750000    -6.10000000
  115.26180000   -14.87420000    -9.60000000
  115.23640000   -14.88080000    -8.70000000
  115.21090000   -14.88750000   -10.20000000
  115.17280000   -14.89750000   -12.80000000
  115.13470000   -14.90740000   -11.10000000
  115.09650000   -14.91740000   -13.70000000
  115.05840000   -14.92740000   -17.30000000
  115.02030000   -14.93730000   -15.60000000
  114.98220000   -14.94730000   -16.00000000
  114.94400000   -14.95730000   -18.60000000
  114.90590000   -14.96730000   -24.40000000
  114.86780000   -14.97720000   -28.00000000
  114.82960000   -14.98720000   -30.60000000
  114.79150000   -14.99720000   -30.00000000
  114.75340000   -15.00710000   -33.80000000
  114.72800000   -15.01380000   -37.30000000
  114.70250000   -15.02040000   -39.60000000
  114.67710000   -15.02710000   -36.80000000
  114.63900000   -15.03700000   -36.10000000
  114.60090000   -15.04700000   -36.50000000
  114.57550000   -15.05370000   -35.80000000
  114.55000000   -15.06030000   -42.50000000
  114.52460000   -15.06700000   -46.00000000
  114.48650000   -15.07690000   -47.60000000
  114.44840000   -15.08690000   -47.00000000
  114.41020000   -15.09690000   -44.30000000
  114.37210000   -15.10680000   -39.30000000
  114.34670000   -15.11350000   -35.30000000
  114.32130000   -15.12010000   -27.00000000
  114.29580000   -15.12680000   -18.70000000
  114.28310000   -15.13010000   -12.40000000
  114.27040000   -15.13340000    -5.10000000
  114.25770000   -15.13680000     3.50000000
  114.24500000   -15.14010000     9.80000000
  114.23230000   -15.14340000    13.90000000
  114.21960000   -15.14670000    18.00000000
  114.18150000   -15.15670000    17.50000000
  114.14330000   -15.16670000    21.30000000
  114.17750000   -15.15720000    41.30000000
  114.18890000   -15.15410000    34.00000000
  114.20030000   -15.15090000    25.50000000
  114.21170000   -15.14780000    19.30000000
  114.22310000   -15.14460000    12.90000000
  114.23450000   -15.14150000     7.80000000
  114.24590000   -15.13830000     0.40000000
  114.25730000   -15.13520000    -6.10000000
  114.26870000   -15.13210000   -13.40000000
  114.28010000   -15.12890000   -20.80000000
  114.29150000   -15.12580000   -26.00000000
  114.30280000   -15.12260000   -31.20000000
  114.31420000   -15.11950000   -35.30000000
  114.32560000   -15.11630000   -40.60000000
  114.37510000   -15.11340000   -40.50000000
  114.38220000   -15.12050000   -47.30000000
  114.31570000   -15.14100000   -55.00000000
  114.30290000   -15.14430000   -53.00000000
  114.29010000   -15.14760000   -47.80000000
  114.27720000   -15.15090000   -44.60000000
  114.25160000   -15.15740000   -37.50000000
  114.22590000   -15.16400000   -30.30000000
  114.20020000   -15.17050000   -17.60000000
  114.18740000   -15.17380000    -9.30000000
  114.17460000   -15.17710000     0.50000000
  114.16180000   -15.18030000    10.90000000
  114.14890000   -15.18360000    19.40000000
  114.13610000   -15.18690000    25.80000000
  114.12330000   -15.19020000    29.80000000
  114.09760000   -15.19670000    35.00000000
  114.07190000   -15.20330000    33.50000000
  114.04630000   -15.20980000    27.80000000
  114.03350000   -15.21310000    22.30000000
  114.02060000   -15.21640000    17.90000000
  114.00780000   -15.21970000    13.40000000
  113.99500000   -15.22290000     9.10000000
  113.98210000   -15.22620000     3.50000000
  113.96930000   -15.22950000    -2.00000000
  113.94360000   -15.23610000    -9.90000000
  113.91800000   -15.24260000   -18.70000000
  113.89230000   -15.24920000   -26.50000000
  113.86670000   -15.25570000   -36.50000000
  113.84100000   -15.26230000   -40.00000000
  113.81540000   -15.26880000   -40.30000000
  113.77690000   -15.27870000   -46.10000000
  113.73840000   -15.28850000   -49.80000000
  113.69990000   -15.29830000   -50.30000000
  113.66140000   -15.30810000   -46.50000000
  113.62290000   -15.31800000   -43.60000000
  113.58440000   -15.32780000   -38.80000000
  113.55880000   -15.33440000   -43.30000000
  113.53310000   -15.34090000   -45.80000000
  113.50740000   -15.34750000   -42.80000000
  113.46890000   -15.35730000   -39.00000000
  113.43050000   -15.36710000   -34.10000000
  113.39200000   -15.37700000   -40.00000000
  113.35350000   -15.38680000   -41.50000000
  113.31500000   -15.39660000   -42.00000000
  113.27650000   -15.40640000   -40.30000000
  113.25080000   -15.41300000   -43.70000000
  113.22520000   -15.41960000   -50.50000000
  113.19950000   -15.42610000   -56.10000000
  113.16100000   -15.43590000   -58.80000000
  113.12250000   -15.44580000   -60.30000000
  113.09690000   -15.45230000   -59.50000000
  113.08410000   -15.45560000   -61.80000000
  113.07120000   -15.45890000   -66.30000000
  113.04560000   -15.46540000   -68.70000000
  112.96860000   -15.48510000   -66.50000000
  112.93010000   -15.49490000   -66.90000000
  112.89160000   -15.50480000   -70.60000000
  112.85310000   -15.51460000   -72.10000000
  112.81460000   -15.52440000   -68.30000000
  112.77610000   -15.53420000   -65.50000000
  112.73760000   -15.54410000   -62.60000000
  112.69920000   -15.55390000   -64.30000000
  112.66070000   -15.56370000   -59.30000000
  112.62220000   -15.57360000   -58.80000000
  112.58370000   -15.58340000   -52.80000000
  112.54520000   -15.59320000   -58.50000000
  112.50670000   -15.60310000   -53.60000000
  112.49390000   -15.60630000   -48.50000000
  112.48110000   -15.60960000   -43.30000000
  112.46820000   -15.61290000   -34.80000000
  112.45540000   -15.61620000   -29.50000000
  112.44260000   -15.61940000   -25.40000000
  112.42970000   -15.62270000   -19.10000000
  112.41690000   -15.62600000   -11.80000000
  112.40410000   -15.62930000    -6.60000000
  112.39120000   -15.63250000    -3.50000000
  112.37840000   -15.63580000     2.80000000
  112.36560000   -15.63910000     9.20000000
  112.35280000   -15.64240000    13.30000000
  112.33990000   -15.64570000    16.30000000
  112.32710000   -15.64890000    14.10000000
  112.30140000   -15.65550000     7.40000000
  112.27580000   -15.66200000     0.60000000
  112.25010000   -15.66860000    -1.90000000
  112.22450000   -15.67510000    -5.60000000
  112.19880000   -15.68170000    -4.80000000
  112.17310000   -15.68830000     2.50000000
  112.14750000   -15.69480000     5.50000000
  112.12180000   -15.70140000     9.40000000
  112.10900000   -15.70460000    14.70000000
  112.09620000   -15.70790000    19.80000000
  112.08330000   -15.71120000    22.90000000
  112.01920000   -15.72760000    23.30000000
  111.99350000   -15.73410000    18.60000000
  111.96790000   -15.74070000    12.90000000
  111.94220000   -15.74720000     7.40000000
  111.91650000   -15.75380000     1.60000000
  111.89090000   -15.76030000    -1.90000000
  111.86520000   -15.76690000    -7.70000000
  111.83960000   -15.77340000    -8.00000000
  111.81390000   -15.78000000    -8.30000000
  111.77540000   -15.78980000    -7.70000000
  111.73690000   -15.79970000    -7.00000000
  111.71130000   -15.80620000   -10.40000000
  111.68560000   -15.81280000   -16.10000000
  111.65990000   -15.81930000   -17.50000000
  111.62150000   -15.82920000   -14.80000000
  111.58300000   -15.83900000   -13.10000000
  111.55730000   -15.84550000   -12.40000000
  111.53160000   -15.85210000   -16.90000000
  111.50600000   -15.85860000   -22.50000000
  111.48030000   -15.86520000   -22.90000000
  111.45470000   -15.87180000   -16.80000000
  111.42900000   -15.87830000   -10.70000000
  111.40340000   -15.88490000    -7.80000000
  111.37770000   -15.89140000    -7.00000000
  111.35200000   -15.89800000    -9.40000000
  111.31350000   -15.90780000    -7.80000000
  111.27510000   -15.91760000    -6.10000000
  111.23660000   -15.92750000    -4.40000000
  111.19810000   -15.93730000    -7.10000000
  111.17240000   -15.94380000   -14.90000000
  111.14680000   -15.95040000   -16.30000000
  111.12110000   -15.95690000   -18.60000000
  111.08260000   -15.96680000   -16.90000000
  111.04410000   -15.97660000   -14.30000000
  111.00560000   -15.98640000   -16.80000000
  110.96710000   -15.99630000   -18.30000000
  110.92860000   -16.00610000   -17.80000000
  110.89020000   -16.01590000   -19.30000000
  110.86450000   -16.02250000   -18.50000000
  110.83880000   -16.02900000   -19.90000000
  110.81320000   -16.03560000   -20.30000000
  110.77470000   -16.04540000   -17.50000000
  110.73620000   -16.05530000   -12.70000000
  110.69770000   -16.06510000   -15.30000000
  110.65920000   -16.07490000   -16.80000000
  110.62070000   -16.08470000   -16.10000000
  110.58220000   -16.09460000   -13.40000000
  110.54380000   -16.10440000   -10.70000000
  110.50530000   -16.11420000   -13.40000000
  110.46680000   -16.12410000   -11.70000000
  110.42830000   -16.13390000    -9.90000000
  110.38980000   -16.14370000    -9.40000000
  110.35130000   -16.15360000    -5.60000000
  109.55350000   -16.37740000   -23.10000000
  109.51120000   -16.38930000   -23.80000000
  109.46880000   -16.40110000   -23.30000000
  109.42650000   -16.41300000   -17.40000000
  109.41240000   -16.41690000   -15.40000000
  109.39830000   -16.42090000   -10.30000000
  109.37000000   -16.42880000    -1.00000000
  109.34180000   -16.43670000     3.00000000
  109.31360000   -16.44460000    -2.80000000
  109.28530000   -16.45250000   -10.80000000
  109.25710000   -16.46040000   -18.60000000
  109.22890000   -16.46830000   -24.30000000
  109.20060000   -16.47620000   -27.90000000
  109.17240000   -16.48410000   -28.30000000
  109.13010000   -16.49590000   -24.60000000
  109.08770000   -16.50780000   -23.10000000
  109.04540000   -16.51970000   -23.60000000
  109.00300000   -16.53150000   -22.10000000
  108.96070000   -16.54340000   -22.80000000
  108.91830000   -16.55520000   -23.30000000
  108.87600000   -16.56710000   -22.80000000
  108.83360000   -16.57890000   -23.30000000
  108.79130000   -16.59080000   -21.80000000
  108.74890000   -16.60260000   -22.40000000
  108.70660000   -16.61450000   -21.90000000
  108.66420000   -16.62630000   -19.30000000
  108.62190000   -16.63820000   -18.70000000
  108.57950000   -16.65000000   -18.30000000
  108.49480000   -16.67370000   -15.20000000
  108.45250000   -16.68560000   -10.40000000
  108.43840000   -16.68950000    -9.60000000
  108.41010000   -16.69740000    -9.80000000
  108.36780000   -16.70930000   -14.70000000
  108.32540000   -16.72110000   -15.30000000
  108.29720000   -16.72900000   -14.60000000
  108.26900000   -16.73690000   -17.10000000
  108.24070000   -16.74480000   -19.60000000
  108.19840000   -16.75670000   -24.50000000
  108.15610000   -16.76850000   -26.10000000
  108.11370000   -16.78040000   -26.80000000
  108.07140000   -16.79220000   -26.30000000
  108.02900000   -16.80410000   -25.80000000
  107.98670000   -16.81590000   -30.60000000
  107.94430000   -16.82780000   -29.10000000
  107.90200000   -16.83960000   -28.60000000
  107.85960000   -16.85150000   -27.10000000
  107.81730000   -16.86330000   -21.30000000
  107.77490000   -16.87520000   -21.80000000
  107.73260000   -16.88700000   -22.40000000
  107.69020000   -16.89890000   -26.30000000
  107.64790000   -16.91070000   -26.80000000
  107.60550000   -16.92260000   -21.00000000
  107.56320000   -16.93440000   -15.20000000
  107.52080000   -16.94630000   -13.70000000
  107.47850000   -16.95820000   -14.30000000
  107.43610000   -16.97000000   -16.90000000
  107.39380000   -16.98190000   -18.60000000
  107.35140000   -16.99370000   -18.10000000
  107.30910000   -17.00560000   -18.70000000
  107.26670000   -17.01740000   -18.30000000
  107.22440000   -17.02930000   -19.90000000
  107.18200000   -17.04110000   -18.30000000
  107.13970000   -17.05300000   -20.00000000
  107.09730000   -17.06480000   -20.60000000
  107.05500000   -17.07670000   -21.30000000
  107.02610000   -17.07880000   -17.10000000
  107.01170000   -17.07990000   -16.10000000
  106.96840000   -17.08310000   -16.30000000
  106.92520000   -17.08630000   -15.40000000
  106.88190000   -17.08960000   -16.60000000
  106.83860000   -17.09280000   -18.90000000
  106.79530000   -17.09600000   -16.90000000
  106.75200000   -17.09920000   -16.00000000
  106.70880000   -17.10250000   -17.30000000
  106.67990000   -17.10460000   -23.80000000
  106.62220000   -17.10890000   -25.10000000
  106.57890000   -17.11210000   -25.30000000
  106.56450000   -17.11320000   -28.50000000
  106.51270000   -17.10800000   -32.60000000
  106.42380000   -17.05940000   -33.80000000
  106.37640000   -17.05620000   -34.60000000
  106.32910000   -17.05310000   -32.30000000
  106.28170000   -17.05000000   -27.80000000
  106.23900000   -17.05140000   -19.00000000
  106.19630000   -17.05270000   -19.10000000
  106.15370000   -17.05410000   -24.50000000
  106.11100000   -17.05540000   -27.80000000
  106.06830000   -17.05680000   -24.80000000
  106.02570000   -17.05810000   -21.50000000
  105.98300000   -17.05950000   -20.50000000
  105.94040000   -17.06080000   -23.80000000
  105.89770000   -17.06220000   -22.80000000
  105.85500000   -17.06350000   -21.80000000
  105.81240000   -17.06490000   -19.80000000
  105.76970000   -17.06620000   -20.90000000
  105.72700000   -17.06760000   -26.30000000
  105.68440000   -17.06890000   -28.50000000
  105.64170000   -17.07030000   -25.30000000
  105.59900000   -17.07170000   -22.30000000
  105.55640000   -17.07300000   -23.30000000
  105.47100000   -17.07570000   -22.40000000
  105.42840000   -17.07710000   -19.30000000
  105.38570000   -17.07840000   -22.50000000
  105.34310000   -17.07980000   -23.80000000
  105.30040000   -17.08110000   -24.80000000
  105.25770000   -17.08250000   -23.80000000
  105.21510000   -17.08380000   -22.80000000
  105.17240000   -17.08520000   -22.90000000
  105.12970000   -17.08650000   -21.90000000
  105.08710000   -17.08790000   -20.90000000
  105.04440000   -17.08920000   -22.00000000
  105.00170000   -17.09060000   -24.30000000
  104.95910000   -17.09190000   -25.40000000
  104.91640000   -17.09330000   -22.30000000
  104.87370000   -17.09470000   -20.10000000
  104.83110000   -17.09600000   -17.00000000
  104.78840000   -17.09740000   -16.00000000
  104.74580000   -17.09870000   -15.10000000
  104.70310000   -17.10010000   -12.90000000
  104.66040000   -17.10140000   -11.90000000
  104.61780000   -17.10280000   -14.20000000
  104.57510000   -17.10410000   -15.40000000
  104.53240000   -17.10550000   -15.40000000
  104.48980000   -17.10680000   -15.40000000
  104.44710000   -17.10820000   -15.60000000
  104.40440000   -17.10950000   -15.60000000
  104.36180000   -17.11090000   -14.60000000
  104.31910000   -17.11220000   -14.70000000
  104.27660000   -17.11310000   -13.40000000
  104.23470000   -17.11200000   -13.40000000
  104.19270000   -17.11080000   -15.40000000
  104.15080000   -17.10970000   -18.60000000
  104.10890000   -17.10860000   -20.80000000
  104.06700000   -17.10750000   -20.60000000
  104.02500000   -17.10630000   -18.40000000
  103.98310000   -17.10520000   -17.30000000
  103.94120000   -17.10410000   -21.50000000
  103.89930000   -17.10290000   -22.50000000
  103.85730000   -17.10180000   -24.60000000
  103.81540000   -17.10070000   -22.40000000
  103.77350000   -17.09960000   -23.50000000
  103.73160000   -17.09840000   -24.50000000
  103.68960000   -17.09730000   -24.40000000
  103.64770000   -17.09620000   -23.30000000
  103.60580000   -17.09500000   -18.90000000
  103.56390000   -17.09390000   -15.80000000
  103.52190000   -17.09280000   -15.70000000
  103.53270000   -17.08710000   -19.10000000
  103.51840000   -17.06780000   -21.30000000
  103.47350000   -17.06890000   -25.80000000
  103.42860000   -17.07000000   -26.80000000
  103.38380000   -17.07120000   -26.90000000
  103.33890000   -17.07230000   -29.10000000
  103.29400000   -17.07340000   -29.10000000
  103.26400000   -17.07410000   -21.80000000
  103.23410000   -17.07490000   -18.50000000
  103.20420000   -17.07560000   -18.50000000
  103.15930000   -17.07680000   -19.80000000
  103.11440000   -17.07790000   -20.80000000
  103.06950000   -17.07900000   -18.70000000
  103.05450000   -17.07940000   -16.60000000
  103.02460000   -17.08010000   -18.70000000
  102.97970000   -17.08120000   -19.90000000
  102.93480000   -17.08240000   -19.90000000
  102.88990000   -17.08350000   -20.00000000
  102.84500000   -17.08460000   -21.10000000
  102.80010000   -17.08570000   -24.40000000
  102.75520000   -17.08690000   -26.60000000
  102.71040000   -17.08800000   -25.60000000
  102.66550000   -17.08910000   -25.60000000
  102.57570000   -17.09130000   -25.80000000
  102.53080000   -17.09250000   -24.80000000
  102.48590000   -17.09360000   -22.50000000
  102.44100000   -17.09470000   -27.90000000
  102.39610000   -17.09580000   -26.90000000
  102.35120000   -17.09690000   -25.90000000
  102.30630000   -17.09810000   -23.80000000
  102.26140000   -17.09920000   -23.90000000
  102.21650000   -17.10030000   -21.80000000
  102.17160000   -17.10140000   -17.60000000
  102.12670000   -17.10260000   -16.50000000
  102.09680000   -17.10330000   -20.90000000
  102.06690000   -17.10400000   -24.10000000
  102.03700000   -17.10480000   -23.10000000
  101.99210000   -17.10590000   -21.00000000
  101.94720000   -17.10700000   -17.80000000
  101.91720000   -17.10780000   -23.30000000
  101.88730000   -17.10850000   -26.50000000
  101.85740000   -17.10930000   -26.50000000
  101.81250000   -17.11040000   -27.80000000
  101.76760000   -17.11150000   -27.80000000
  101.72270000   -17.11260000   -28.90000000
  101.67780000   -17.11380000   -33.30000000
  101.63290000   -17.11490000   -33.30000000
  101.58800000   -17.11600000   -30.10000000
  101.49820000   -17.11830000   -33.50000000
  101.45340000   -17.11940000   -35.60000000
  101.40850000   -17.12050000   -40.00000000
  101.36360000   -17.12160000   -44.30000000
  101.31870000   -17.12270000   -41.30000000
  101.27380000   -17.12390000   -34.80000000
  101.22890000   -17.12500000   -34.80000000
  101.18400000   -17.12610000   -40.30000000
  101.13910000   -17.12720000   -40.30000000
  101.09420000   -17.12830000   -38.30000000
  101.04930000   -17.12950000   -39.50000000
  101.00440000   -17.13060000   -42.60000000
  100.95950000   -17.13170000   -42.80000000
  100.91460000   -17.13280000   -40.60000000
  100.86970000   -17.13400000   -38.50000000
  100.82480000   -17.13510000   -39.60000000
  100.78000000   -17.13620000   -36.50000000
  100.75000000   -17.13690000   -30.10000000
  100.72010000   -17.13770000   -25.80000000
  100.69020000   -17.13840000   -26.90000000
  100.66020000   -17.13920000   -28.10000000
  100.63030000   -17.13990000   -24.90000000
  100.60040000   -17.14070000   -21.80000000
  100.57040000   -17.14140000   -15.40000000
  100.54050000   -17.14220000   -12.20000000
  100.51060000   -17.14290000   -12.20000000
  100.46570000   -17.14400000   -12.30000000
  100.42080000   -17.14520000   -12.40000000
  100.39090000   -17.14590000   -11.30000000
  100.36100000   -17.14670000   -13.40000000
  100.33100000   -17.14740000   -15.70000000
  100.28610000   -17.14850000   -14.70000000
  100.24120000   -17.14970000   -11.40000000
  100.19630000   -17.15080000   -13.70000000
  100.15150000   -17.15190000   -16.90000000
  100.10660000   -17.15300000   -12.80000000
  100.06170000   -17.15410000   -10.70000000
  100.01680000   -17.15530000    -8.60000000
   99.97190000   -17.15640000    -7.60000000
   99.94190000   -17.15710000    -4.40000000
   99.91200000   -17.15790000     2.10000000
   99.88210000   -17.15860000     6.50000000
   99.83720000   -17.15970000     6.40000000
   99.79230000   -17.16090000     9.60000000
   99.74740000   -17.16200000    13.80000000
   99.70250000   -17.16310000    14.80000000
   99.67260000   -17.16390000     9.40000000
   99.64270000   -17.16460000    -0.50000000
   99.61270000   -17.16540000    -6.90000000
   99.58280000   -17.16610000   -12.30000000
   99.55290000   -17.16680000   -16.60000000
   99.52290000   -17.16760000   -22.00000000
   99.49300000   -17.16830000   -33.80000000
   99.46310000   -17.16910000   -44.60000000
   99.43320000   -17.16980000   -53.30000000
   99.38830000   -17.17100000   -59.80000000
   99.37330000   -17.17130000   -62.00000000
   99.34340000   -17.17210000   -67.40000000
   99.29850000   -17.17320000   -71.70000000
   99.24220000   -17.18020000   -54.80000000
   99.18780000   -17.18400000   -44.10000000
   99.17330000   -17.18410000   -35.50000000
   99.15880000   -17.18430000   -28.00000000
   99.14430000   -17.18440000   -19.40000000
   99.12980000   -17.18460000    -9.90000000
   99.11530000   -17.18470000    -0.20000000
   99.10080000   -17.18490000     5.30000000
   99.08630000   -17.18500000    13.90000000
   99.05730000   -17.18530000    14.90000000
   99.01380000   -17.18580000    11.70000000
   98.97030000   -17.18620000     8.40000000
   98.92670000   -17.18660000    13.80000000
   98.89770000   -17.18690000    20.10000000
   98.86870000   -17.18720000    24.40000000
   98.83970000   -17.18750000    15.90000000
   98.81070000   -17.18780000     9.40000000
   98.78170000   -17.18810000     4.10000000
   98.75270000   -17.18840000    -1.30000000
   98.72370000   -17.18870000    -5.70000000
   98.69470000   -17.18900000   -11.10000000
   98.66560000   -17.18930000   -16.30000000
   98.63660000   -17.18960000   -17.40000000
   98.60760000   -17.18990000   -15.40000000
   98.57860000   -17.19020000    -8.90000000
   98.54960000   -17.19050000    -3.50000000
   98.52060000   -17.19080000    -7.90000000
   98.49160000   -17.19110000   -11.20000000
   98.44810000   -17.19150000   -10.10000000
   98.40460000   -17.19190000   -10.10000000
   98.37550000   -17.19220000   -14.40000000
   98.34650000   -17.19250000   -28.30000000
   98.31750000   -17.19280000   -33.80000000
   98.27400000   -17.19330000   -37.00000000
   98.23050000   -17.19370000   -36.00000000
   98.20150000   -17.19400000   -34.80000000
   98.17250000   -17.19430000   -29.50000000
   98.14350000   -17.19460000   -17.80000000
   98.11450000   -17.19490000    -8.10000000
   98.08540000   -17.19520000    -4.90000000
   98.05640000   -17.19550000    -3.80000000
   98.01290000   -17.19590000    -3.80000000
   97.96940000   -17.19640000    -0.70000000
   97.92590000   -17.19680000    -0.70000000
   97.88240000   -17.19730000    -2.80000000
   97.83890000   -17.19770000    -5.10000000
   97.79530000   -17.19810000    -2.80000000
   97.76630000   -17.19840000     1.40000000
   97.73730000   -17.19870000     3.60000000
   97.70830000   -17.19900000     1.40000000
   97.66480000   -17.19950000    -0.90000000
   97.62130000   -17.19990000    -0.90000000
   97.57780000   -17.20040000    -4.10000000
   97.53420000   -17.20080000   -10.60000000
   97.49070000   -17.20120000   -11.70000000
   97.44720000   -17.20170000   -10.60000000
   97.40370000   -17.20210000   -17.00000000
   97.36020000   -17.20260000   -19.30000000
   97.31670000   -17.20300000   -20.30000000
   97.27310000   -17.20350000   -20.30000000
   97.22960000   -17.20390000   -23.50000000
   97.18610000   -17.20430000   -24.60000000
   97.14260000   -17.20480000   -25.80000000
   97.09910000   -17.20520000   -29.00000000
   97.05560000   -17.20570000   -31.10000000
   97.01210000   -17.20610000   -26.90000000
   96.96850000   -17.20660000   -24.80000000
   96.92500000   -17.20700000   -24.80000000
   96.88150000   -17.20740000   -21.60000000
   96.83800000   -17.20790000   -18.40000000
   96.79450000   -17.20830000   -11.90000000
   96.75100000   -17.20880000   -14.20000000
   96.70740000   -17.20920000   -15.30000000
   96.66390000   -17.20970000   -10.90000000
   96.62040000   -17.21010000    -7.80000000
   96.57690000   -17.21050000    -5.70000000
   96.53340000   -17.21100000     0.90000000
   96.45690000   -17.21460000     3.50000000
   96.32300000   -17.22000000     0.20000000
   96.27540000   -17.22120000     0.10000000
   96.22780000   -17.22250000    -1.10000000
   96.18020000   -17.22370000    -4.50000000
   96.13260000   -17.22490000    -4.50000000
   96.08500000   -17.22620000    -5.70000000
   96.03740000   -17.22740000    -8.90000000
   96.00560000   -17.22830000   -14.40000000
   95.97390000   -17.22910000   -20.80000000
   95.94210000   -17.22990000   -25.10000000
   95.89450000   -17.23120000   -26.30000000
   95.84690000   -17.23240000   -27.40000000
