   76.59100000   -19.55960000    -7.60000000
   76.59170000   -19.58670000   -10.20000000
   76.59240000   -19.61310000   -11.70000000
   76.59310000   -19.63950000   -12.10000000
   76.59380000   -19.66600000   -10.40000000
   76.59450000   -19.69240000    -9.70000000
   76.59520000   -19.71880000   -10.20000000
   76.59590000   -19.74520000   -12.70000000
   76.59670000   -19.77170000   -13.20000000
   76.59730000   -19.79800000   -11.40000000
   76.59800000   -19.82440000    -9.80000000
   76.59870000   -19.85070000   -10.20000000
   76.59940000   -19.87710000   -11.80000000
   76.60010000   -19.90350000   -12.20000000
   76.60070000   -19.92980000   -11.60000000
   76.60140000   -19.95620000   -11.90000000
   76.60210000   -19.98250000    -9.20000000
   76.60280000   -20.00890000    -7.50000000
   76.60300000   -20.03540000   -10.40000000
   76.60120000   -20.06150000   -12.90000000
   76.59950000   -20.08760000   -15.60000000
   76.59780000   -20.11360000   -12.80000000
   76.59610000   -20.13970000   -13.30000000
   76.59430000   -20.16580000   -13.70000000
   76.59260000   -20.19190000   -13.10000000
   76.59090000   -20.21800000   -13.40000000
   76.58910000   -20.24410000   -13.90000000
   76.58740000   -20.27010000    -8.90000000
   76.58570000   -20.29620000    -9.40000000
   76.58400000   -20.32190000   -10.90000000
   76.58230000   -20.34720000   -11.30000000
   76.58060000   -20.37250000   -11.70000000
   76.57890000   -20.39790000   -12.10000000
   76.57720000   -20.42320000   -12.40000000
   76.57550000   -20.44850000   -13.90000000
   76.57380000   -20.47390000   -14.40000000
   76.57210000   -20.49920000   -12.70000000
   76.57040000   -20.52660000   -10.90000000
   76.56870000   -20.55390000   -10.40000000
   76.56700000   -20.58130000   -10.90000000
   76.56530000   -20.60870000    -6.20000000
   76.56020000   -20.69080000    -1.30000000
   76.55510000   -20.77290000    -3.00000000
   76.55340000   -20.80030000    -3.50000000
   76.55170000   -20.82760000    -4.20000000
   76.55000000   -20.85500000    -3.60000000
   76.54840000   -20.88260000    -2.80000000
   76.54690000   -20.91020000    -3.30000000
   76.54530000   -20.93780000    -4.00000000
   76.54410000   -20.96520000    -5.70000000
   76.54300000   -20.99250000    -7.30000000
   76.54180000   -21.01830000    -9.90000000
   76.54070000   -21.04400000   -11.40000000
   76.53960000   -21.06970000   -11.90000000
   76.53840000   -21.09550000   -13.40000000
   76.50380000   -21.21650000   -28.50000000
   76.50170000   -21.24330000   -30.10000000
   76.50040000   -21.27000000   -28.50000000
   76.49920000   -21.29680000   -29.10000000
   76.49800000   -21.32350000   -30.80000000
   76.49680000   -21.35020000   -28.00000000
   76.49550000   -21.37690000   -24.30000000
   76.49430000   -21.40360000   -21.60000000
   76.49320000   -21.43040000   -18.50000000
   76.49260000   -21.45740000   -14.80000000
   76.49180000   -21.49790000   -10.80000000
   76.49150000   -21.51140000    -6.20000000
   76.49090000   -21.53840000    -1.30000000
   76.49030000   -21.56550000     2.50000000
   76.49010000   -21.59220000     5.80000000
   76.49020000   -21.61860000     5.20000000
   76.49040000   -21.64520000     3.50000000
   76.49050000   -21.67180000     1.90000000
   76.49070000   -21.69840000    -0.90000000
   76.49080000   -21.72500000    -1.40000000
   76.49100000   -21.75160000    -2.00000000
   76.49110000   -21.77820000    -1.50000000
   76.49130000   -21.80480000    -2.10000000
   76.49150000   -21.83140000    -3.70000000
   76.49160000   -21.85800000    -5.50000000
   76.49220000   -21.88380000    -4.80000000
   76.49280000   -21.90950000    -6.40000000
   76.49350000   -21.93510000    -7.00000000
   76.49410000   -21.96070000    -7.50000000
   76.49480000   -21.98630000    -9.10000000
   76.49540000   -22.01200000   -10.70000000
   76.49610000   -22.03760000   -11.20000000
   76.49740000   -22.08880000    -7.90000000
   76.49800000   -22.11460000    -5.20000000
   76.49870000   -22.14030000    -7.90000000
   76.49940000   -22.16600000   -11.70000000
   76.50000000   -22.19170000   -16.50000000
   76.50070000   -22.21740000   -20.30000000
   76.50130000   -22.24310000   -20.80000000
   76.50200000   -22.26890000   -20.50000000
   76.50260000   -22.29460000   -17.80000000
   76.50330000   -22.32030000   -12.90000000
   76.50390000   -22.34600000    -9.30000000
   76.50460000   -22.37170000    -8.70000000
   76.50530000   -22.39720000    -8.70000000
   76.50620000   -22.42200000   -12.40000000
   76.50710000   -22.44690000   -11.90000000
   76.50800000   -22.47170000    -9.20000000
   76.51220000   -22.55920000    -4.20000000
   76.51290000   -22.57170000    -1.60000000
   76.51410000   -22.59670000     4.40000000
   76.51540000   -22.62170000     6.10000000
   76.51670000   -22.64670000     4.50000000
   76.51840000   -22.67210000     2.80000000
   76.52020000   -22.69750000     0.20000000
   76.52190000   -22.72300000    -2.60000000
   76.52370000   -22.74840000    -5.60000000
   76.52540000   -22.77400000    -6.20000000
   76.52710000   -22.79950000    -1.20000000
   76.52870000   -22.82510000     0.50000000
   76.53040000   -22.85060000     4.20000000
   76.53210000   -22.87610000     5.80000000
   76.53380000   -22.90170000     6.20000000
   76.53710000   -22.92760000    11.40000000
   76.54040000   -22.95360000    11.90000000
   76.54360000   -22.97950000    12.40000000
   76.54690000   -23.00550000     9.70000000
   76.55010000   -23.03140000     5.80000000
   76.55340000   -23.05740000     0.90000000
   76.55670000   -23.08330000    -5.30000000
   76.55830000   -23.10890000   -13.80000000
   76.56010000   -23.13450000   -14.40000000
   76.56170000   -23.16000000   -14.90000000
   76.56340000   -23.18560000   -12.30000000
   76.56510000   -23.21120000    -8.60000000
   76.56680000   -23.23680000    -7.00000000
   76.56850000   -23.26230000    -5.40000000
   76.57020000   -23.28790000    -3.80000000
   76.57190000   -23.31350000    -1.10000000
   76.57360000   -23.33930000     0.50000000
   76.57550000   -23.36530000     3.50000000
   76.57790000   -23.39160000     7.30000000
   76.58020000   -23.41800000     6.60000000
   76.58260000   -23.44440000     6.00000000
   76.58500000   -23.47070000     6.40000000
   76.58740000   -23.49710000     4.70000000
   76.58980000   -23.52340000     2.80000000
   76.59210000   -23.54980000     3.30000000
   76.59450000   -23.57620000     3.70000000
   76.59570000   -23.58930000     5.10000000
   76.59690000   -23.60250000     7.40000000
   76.59910000   -23.62930000     6.80000000
   76.60010000   -23.64300000     4.80000000
   76.60100000   -23.65670000     0.70000000
   76.60300000   -23.68400000   -11.10000000
   76.60490000   -23.71140000   -16.00000000
   76.60680000   -23.73880000   -18.90000000
   76.60880000   -23.76620000   -14.40000000
   76.61070000   -23.79350000   -10.80000000
   76.61260000   -23.81560000   -10.10000000
   76.61460000   -23.83760000   -10.40000000
   76.61650000   -23.85960000    -9.80000000
   76.61840000   -23.88170000    -6.90000000
   76.62040000   -23.90370000    -4.10000000
   76.62230000   -23.92570000    -1.10000000
   76.62620000   -23.97490000     5.30000000
   76.62710000   -23.98780000     4.40000000
   76.62810000   -24.00100000     2.50000000
   76.63010000   -24.02800000     2.80000000
   76.63200000   -24.05510000     5.30000000
   76.63390000   -24.08210000     2.30000000
   76.63590000   -24.10920000    -5.00000000
   76.63770000   -24.13630000    -9.40000000
   76.63950000   -24.16350000   -11.20000000
   76.64120000   -24.19070000    -9.80000000
   76.64300000   -24.21790000    -7.30000000
   76.64430000   -24.24430000    -6.00000000
   76.64550000   -24.27050000    -3.30000000
   76.64680000   -24.29680000    -0.90000000
   76.64800000   -24.32300000     1.80000000
   76.64920000   -24.34920000    -2.30000000
   76.65040000   -24.37540000    -8.30000000
   76.65170000   -24.40170000   -10.10000000
   76.65140000   -24.42790000   -16.30000000
   76.65120000   -24.45420000   -18.00000000
   76.65100000   -24.46730000   -17.80000000
   76.63320000   -24.53700000   -25.00000000
   76.62790000   -24.56300000   -20.30000000
   76.62270000   -24.58910000   -15.70000000
   76.61740000   -24.61510000    -5.60000000
   76.61220000   -24.64120000     1.30000000
   76.60700000   -24.66730000     7.20000000
   76.60170000   -24.69330000     7.60000000
   76.59650000   -24.71940000     5.80000000
   76.59140000   -24.74590000     6.00000000
   76.58650000   -24.77320000     9.40000000
   76.58170000   -24.80060000    12.90000000
   76.56710000   -24.88250000    24.50000000
   76.56220000   -24.90980000    23.80000000
   76.55700000   -24.93710000    20.80000000
   76.55020000   -24.96410000    20.00000000
   76.54340000   -24.99120000    20.30000000
   76.53670000   -25.01830000    21.80000000
   76.53240000   -25.04490000    25.50000000
   76.52820000   -25.07140000    20.50000000
   76.52400000   -25.09790000    16.50000000
   76.51970000   -25.12450000    12.60000000
   76.51550000   -25.15100000    11.80000000
   76.51130000   -25.17760000    11.10000000
   76.50700000   -25.20410000    11.40000000
   76.50280000   -25.23060000    11.70000000
   76.49860000   -25.25720000     8.70000000
   76.49430000   -25.28370000     2.50000000
   76.49010000   -25.31030000    -0.50000000
   76.48590000   -25.33680000    -2.30000000
   76.48170000   -25.36330000    -4.20000000
   76.47620000   -25.38960000    -7.70000000
   76.47070000   -25.41580000    -5.20000000
   76.46520000   -25.44210000    -4.90000000
   76.45970000   -25.46830000    -6.70000000
   76.45420000   -25.49460000    -7.50000000
   76.44870000   -25.52080000   -10.40000000
   76.44330000   -25.54710000   -12.20000000
   76.39650000   -25.61240000    -4.60000000
   76.37890000   -25.63320000    -2.80000000
   76.36130000   -25.65410000     0.20000000
   76.34370000   -25.67500000     3.00000000
   76.32470000   -25.69600000     1.80000000
   76.30470000   -25.71700000     3.50000000
   76.28460000   -25.73810000    -1.40000000
   76.26450000   -25.75920000    -5.20000000
   76.24450000   -25.78030000    -6.60000000
   76.22440000   -25.80140000    -3.70000000
   76.20450000   -25.82240000    -0.20000000
   76.18510000   -25.84290000     2.60000000
   76.16580000   -25.86330000     9.90000000
   76.14650000   -25.88380000    13.90000000
   76.13680000   -25.89400000    15.30000000
   76.08750000   -25.94610000    17.80000000
   76.06760000   -25.96700000    14.30000000
   76.04770000   -25.98800000     6.20000000
   76.02780000   -26.00900000     0.50000000
   76.00800000   -26.02990000     0.10000000
   75.98860000   -26.05040000     0.60000000
   75.96960000   -26.07060000    -2.00000000
   75.95050000   -26.09080000    -3.50000000
   75.93170000   -26.11070000    -0.20000000
   75.91300000   -26.13090000     6.20000000
   75.89470000   -26.15210000     9.10000000
   75.87640000   -26.17340000    14.10000000
   75.85820000   -26.19460000    16.80000000
   75.83990000   -26.21590000    17.40000000
   75.82160000   -26.23710000    15.90000000
   75.80330000   -26.25830000    13.40000000
   75.78490000   -26.27850000    11.70000000
   75.76650000   -26.29870000    10.30000000
   75.74800000   -26.31890000     8.70000000
   75.72960000   -26.33910000     8.40000000
   75.71120000   -26.35930000    10.20000000
   75.69270000   -26.37950000    11.90000000
   75.67440000   -26.39990000    13.40000000
   75.65620000   -26.42030000    14.10000000
   75.63810000   -26.44080000    14.80000000
   75.61990000   -26.46130000    10.10000000
   75.60170000   -26.48180000     5.30000000
   75.58340000   -26.50240000     0.60000000
   75.56520000   -26.52290000    -1.00000000
   75.54700000   -26.54350000   -15.40000000
   75.52870000   -26.56400000    -7.30000000
   75.51050000   -26.58460000    -1.10000000
   75.49230000   -26.60510000     2.80000000
   75.47500000   -26.62560000     4.90000000
   75.45830000   -26.64600000     6.70000000
   75.44170000   -26.66630000     6.20000000
   75.42500000   -26.68670000     5.90000000
   75.40830000   -26.70710000    10.90000000
   75.39170000   -26.72750000    16.90000000
   75.37500000   -26.74790000    11.20000000
   75.35830000   -26.76830000     2.00000000
   75.34170000   -26.78870000    -1.60000000
   75.32450000   -26.80930000    -8.60000000
   75.30530000   -26.83090000    -5.80000000
   75.28720000   -26.85120000    -2.50000000
   75.26920000   -26.87150000    -3.00000000
   75.25110000   -26.89180000    -3.30000000
   75.23300000   -26.91210000    -4.90000000
   75.21500000   -26.93240000     1.30000000
   75.19690000   -26.95270000     4.30000000
   75.17890000   -26.97300000     2.80000000
   75.16080000   -26.99330000     1.20000000
   75.14270000   -27.01360000    -5.80000000
   75.12470000   -27.03390000    -7.30000000
   75.10660000   -27.05420000    -5.50000000
   75.08860000   -27.07450000    -3.60000000
   75.07130000   -27.09380000    -2.10000000
   75.05410000   -27.11320000    -1.30000000
   75.03690000   -27.13250000     1.60000000
   75.01970000   -27.15190000     5.70000000
   75.00240000   -27.17120000     8.60000000
   74.98520000   -27.19060000     9.30000000
   74.96720000   -27.20960000     4.20000000
   74.94880000   -27.22850000    -2.60000000
   74.93030000   -27.24730000    -4.10000000
   74.91180000   -27.26620000     2.10000000
   74.89330000   -27.28500000     6.20000000
   74.87580000   -27.30160000     9.20000000
   74.85820000   -27.31820000    12.30000000
   74.81640000   -27.34510000    17.10000000
   74.79960000   -27.36290000    21.30000000
   74.78270000   -27.38070000    22.10000000
   74.76580000   -27.39850000    18.60000000
   74.74900000   -27.41630000    11.90000000
   74.73210000   -27.43410000     6.40000000
   74.71520000   -27.45200000    11.40000000
   74.69840000   -27.46980000    15.60000000
   74.68100000   -27.48920000     9.70000000
   74.66350000   -27.50910000     2.80000000
   74.64590000   -27.52900000     4.60000000
   74.62840000   -27.54880000     9.60000000
   74.61090000   -27.56870000    14.60000000
   74.59340000   -27.58860000    22.80000000
   74.57580000   -27.60850000    21.30000000
   74.55830000   -27.62830000    18.70000000
   74.54140000   -27.64680000    17.50000000
   74.52440000   -27.66520000    12.90000000
   74.50740000   -27.68370000     9.40000000
   74.49050000   -27.70210000    12.40000000
   74.47350000   -27.72060000    25.00000000
   74.45650000   -27.73940000    32.30000000
   74.43960000   -27.75870000    32.00000000
   74.42260000   -27.77810000    33.80000000
   74.40560000   -27.79740000    32.30000000
   74.38860000   -27.81680000    29.80000000
   74.37160000   -27.83610000    29.50000000
   74.35470000   -27.85540000    31.20000000
   74.33770000   -27.87480000    30.90000000
   74.32070000   -27.89410000    26.30000000
   74.30370000   -27.91350000    21.50000000
   74.28670000   -27.93280000    20.10000000
   74.26870000   -27.95190000    18.10000000
   74.25040000   -27.97080000    15.80000000
   74.23190000   -27.99000000    10.80000000
   74.21340000   -28.00930000    -7.10000000
   74.20410000   -28.01890000   -21.80000000
   74.19490000   -28.02850000   -26.80000000
   74.17640000   -28.04770000   -22.80000000
   74.16710000   -28.05730000   -19.30000000
   74.15790000   -28.06690000   -13.40000000
   74.13930000   -28.08610000     0.20000000
   74.13010000   -28.09570000     7.20000000
   74.12080000   -28.10530000    15.10000000
   74.10230000   -28.12450000    23.30000000
   74.08380000   -28.14370000    22.90000000
   74.06530000   -28.16290000    22.60000000
   74.04680000   -28.18210000    25.40000000
   74.02830000   -28.20130000    28.30000000
   74.00980000   -28.22050000    27.80000000
   73.99130000   -28.23970000    29.60000000
   73.97280000   -28.25890000    29.30000000
   73.89960000   -28.33470000    37.80000000
   73.88170000   -28.35330000    34.30000000
   73.86370000   -28.37190000    26.30000000
   73.84580000   -28.39050000    24.90000000
   73.82730000   -28.40910000    24.30000000
   73.80820000   -28.42760000    28.30000000
   73.78910000   -28.44610000    36.80000000
   73.76990000   -28.46460000    37.50000000
   73.75080000   -28.48310000    34.00000000
   73.73170000   -28.50170000    27.10000000
   73.71270000   -28.52030000    20.60000000
   73.69370000   -28.53900000    17.10000000
   73.67470000   -28.55770000    12.40000000
   73.65570000   -28.57630000     8.90000000
   73.63670000   -28.59500000     4.30000000
   73.61760000   -28.61460000    11.40000000
   73.59860000   -28.63420000    17.40000000
   73.57960000   -28.65380000    19.30000000
   73.56080000   -28.67310000    17.30000000
   73.54210000   -28.69240000    14.80000000
   73.52330000   -28.71170000    11.20000000
   73.50510000   -28.73020000    13.10000000
   73.48690000   -28.74860000    17.00000000
   73.46860000   -28.76710000    24.30000000
   73.45040000   -28.78560000    29.30000000
   73.43220000   -28.80410000    33.30000000
   73.42310000   -28.81340000    27.30000000
   73.41400000   -28.82260000    21.10000000
   73.39540000   -28.84130000     8.70000000
   73.37650000   -28.86010000    -1.30000000
   73.35770000   -28.87900000    -7.20000000
   73.33880000   -28.89780000    -4.30000000
   73.32000000   -28.91670000     1.90000000
   73.30260000   -28.93620000    14.30000000
   73.28510000   -28.95570000    11.70000000
   73.26770000   -28.97520000     3.70000000
   73.25030000   -28.99470000    -1.00000000
   73.23280000   -29.01430000    -6.00000000
   73.21530000   -29.03380000    -0.90000000
   73.19700000   -29.05220000     0.40000000
   73.17820000   -29.06970000     0.10000000
   73.15930000   -29.08730000    -1.30000000
   73.14040000   -29.10480000    -4.90000000
   73.12240000   -29.12310000    -1.80000000
   73.10460000   -29.14170000     4.40000000
   73.08670000   -29.16020000    10.60000000
   73.06890000   -29.17870000    10.20000000
   73.05110000   -29.19720000    10.90000000
   73.03320000   -29.21580000     6.20000000
   73.01540000   -29.23430000     3.70000000
   72.99760000   -29.25280000    10.90000000
   72.97970000   -29.27130000    13.90000000
   72.96190000   -29.28980000    12.40000000
   72.94410000   -29.30840000    12.10000000
   72.92630000   -29.32690000    11.80000000
   72.90820000   -29.34560000    14.30000000
   72.89010000   -29.36440000    16.00000000
   72.87210000   -29.38310000    18.90000000
   72.85400000   -29.40180000    19.60000000
   72.83590000   -29.42050000    19.30000000
   72.81780000   -29.43930000    17.80000000
   72.79980000   -29.45800000    13.20000000
   72.78170000   -29.47670000    10.70000000
   72.76360000   -29.49550000    10.30000000
   72.74560000   -29.51420000     7.80000000
   72.72750000   -29.53290000     4.20000000
   72.70940000   -29.55170000     3.70000000
   72.69140000   -29.56990000     7.00000000
   72.67340000   -29.58630000    16.40000000
   72.60920000   -29.62540000    16.80000000
   72.59120000   -29.64350000    18.60000000
   72.57330000   -29.66170000    16.10000000
   72.55590000   -29.67980000    12.70000000
   72.53850000   -29.69800000     8.00000000
   72.52100000   -29.71620000    14.20000000
   72.50360000   -29.73440000    14.90000000
   72.48510000   -29.75340000     9.90000000
   72.46600000   -29.77300000     5.20000000
   72.44680000   -29.79250000     6.90000000
   72.42760000   -29.81210000    12.90000000
   72.40840000   -29.83160000    15.80000000
   72.38920000   -29.85120000    12.10000000
   72.37000000   -29.87070000    13.80000000
   72.36050000   -29.88050000    16.30000000
   72.27350000   -29.96920000    10.90000000
   72.25390000   -29.98910000    10.40000000
   72.23440000   -30.00890000     3.30000000
   72.21480000   -30.02850000     3.00000000
   72.19520000   -30.04810000     7.90000000
   72.17570000   -30.06770000    11.80000000
   72.15610000   -30.08720000    15.70000000
   72.13650000   -30.10680000    16.30000000
   72.11690000   -30.12640000    13.70000000
   72.09730000   -30.14600000    13.20000000
   72.07780000   -30.16580000    13.10000000
   72.05830000   -30.18650000    14.70000000
   72.03880000   -30.20720000    18.30000000
   72.01930000   -30.22790000    22.10000000
   71.99980000   -30.24860000    23.80000000
   71.98030000   -30.26930000    21.00000000
   71.96080000   -30.29000000    20.50000000
   71.94120000   -30.31070000    22.10000000
   71.92160000   -30.33140000    23.80000000
   71.90210000   -30.35220000    24.30000000
   71.88250000   -30.37290000    23.80000000
   71.86290000   -30.39370000    26.40000000
   71.84330000   -30.41440000    21.50000000
   71.82370000   -30.43520000    16.80000000
   71.80420000   -30.45590000    15.10000000
   71.78460000   -30.47660000    14.60000000
   71.76500000   -30.49740000    13.90000000
   71.74540000   -30.51810000    15.60000000
   71.72580000   -30.53890000    17.10000000
   71.70620000   -30.55960000    14.40000000
   71.68670000   -30.58040000    11.80000000
   71.66710000   -30.60110000     6.90000000
   71.64750000   -30.62180000     3.00000000
   71.62790000   -30.64260000    -0.90000000
   71.60830000   -30.66330000    -2.50000000
   71.59010000   -30.68300000     5.30000000
   71.57190000   -30.70270000    10.20000000
   71.55370000   -30.72240000    15.10000000
   71.53560000   -30.74200000    17.00000000
   71.51750000   -30.76160000    17.60000000
   71.49910000   -30.78150000    15.60000000
   71.48020000   -30.80200000    13.90000000
   71.46130000   -30.82260000    11.30000000
   71.44240000   -30.84310000    10.80000000
   71.42340000   -30.86370000    14.30000000
   71.40430000   -30.88440000    12.70000000
   71.38530000   -30.90500000     9.90000000
   71.36620000   -30.92570000     6.20000000
   71.34720000   -30.94630000     3.30000000
   71.32810000   -30.96700000     5.00000000
   71.30910000   -30.98760000     6.60000000
   71.29000000   -31.00830000    10.40000000
   71.27100000   -31.02890000    13.10000000
   71.25190000   -31.04960000    12.40000000
   71.23280000   -31.07020000    11.90000000
   71.21380000   -31.09090000    11.40000000
   71.19440000   -31.11140000    11.10000000
   71.17490000   -31.13200000    12.70000000
   71.15530000   -31.15260000    14.30000000
   71.13580000   -31.17310000    13.80000000
   71.11630000   -31.19370000    15.40000000
   71.09680000   -31.21420000    14.80000000
   71.05800000   -31.25510000    16.10000000
   71.03860000   -31.27550000    15.60000000
   71.01920000   -31.29590000    15.10000000
   70.99970000   -31.31630000    13.40000000
   70.98030000   -31.33670000    12.90000000
   70.96090000   -31.35720000    12.30000000
   70.94150000   -31.37760000    10.70000000
   70.92210000   -31.39800000    10.10000000
   70.90270000   -31.41840000    10.70000000
   70.88330000   -31.43880000    11.20000000
   70.86390000   -31.45920000    10.60000000
   70.84410000   -31.48030000     9.40000000
   70.82430000   -31.50140000    11.90000000
   70.80450000   -31.52260000    15.70000000
   70.78490000   -31.54350000    16.50000000
   70.76530000   -31.56440000    17.00000000
   70.74570000   -31.58540000    17.50000000
   70.72610000   -31.60630000    13.70000000
   70.70650000   -31.62730000    10.90000000
   70.68690000   -31.64820000     8.20000000
   70.66730000   -31.66910000     8.70000000
   70.64720000   -31.68990000     7.30000000
   70.62710000   -31.71050000     7.80000000
   70.60700000   -31.73120000    10.40000000
   70.58690000   -31.75190000    11.90000000
   70.56680000   -31.77260000    11.40000000
   70.54670000   -31.79320000    10.80000000
   70.52660000   -31.81390000     8.10000000
   70.50650000   -31.83460000     6.40000000
   70.48630000   -31.85530000     3.50000000
   70.46620000   -31.87590000     0.90000000
   70.44610000   -31.89660000     0.20000000
   70.42600000   -31.91720000     1.00000000
   70.40590000   -31.93780000     1.50000000
   70.38580000   -31.95840000     1.90000000
   70.36570000   -31.97900000     3.50000000
   70.34560000   -31.99960000     3.00000000
   70.32550000   -32.02020000     1.30000000
   70.30540000   -32.04080000     1.80000000
   70.28530000   -32.06140000     4.50000000
   70.26520000   -32.08200000     6.10000000
   70.24510000   -32.10260000     8.70000000
   70.22500000   -32.12320000    10.30000000
   70.20490000   -32.14380000    11.80000000
   70.18480000   -32.16440000    13.40000000
   70.16470000   -32.18500000    11.70000000
   70.14460000   -32.20560000     8.90000000
   70.12450000   -32.22620000     8.40000000
   70.10440000   -32.24680000     6.70000000
   70.08420000   -32.26740000     5.30000000
   70.06370000   -32.28800000     4.90000000
   70.04310000   -32.30860000     0.90000000
   70.02250000   -32.32910000    -1.80000000
   70.00200000   -32.34970000    -1.30000000
   69.98140000   -32.37030000     2.50000000
   69.96080000   -32.39080000     6.20000000
   69.94030000   -32.41140000     9.90000000
   69.81590000   -32.42040000    13.60000000
   69.78470000   -32.42150000    18.80000000
   69.75290000   -32.42270000    22.80000000
   69.72100000   -32.42380000    24.90000000
   69.68920000   -32.42490000    20.50000000
   69.65740000   -32.42600000    20.40000000
   69.62570000   -32.42710000    20.80000000
   69.59410000   -32.42800000    20.80000000
   69.56210000   -32.42900000    18.80000000
   69.53020000   -32.43000000    15.60000000
   69.49820000   -32.43100000    14.40000000
   69.46620000   -32.43200000    12.20000000
   69.43430000   -32.43300000    10.90000000
   69.40230000   -32.43400000    11.90000000
   69.37030000   -32.43500000    11.90000000
   69.33840000   -32.43600000    12.90000000
   69.30640000   -32.43690000    13.90000000
   69.27440000   -32.43790000     9.60000000
   69.24220000   -32.43730000     6.50000000
   69.12240000   -32.40510000     9.80000000
   69.08980000   -32.40330000     9.90000000
   69.05710000   -32.40150000    10.10000000
   69.02450000   -32.39980000    10.20000000
   68.99190000   -32.39820000    12.80000000
   68.96000000   -32.39780000    13.90000000
   68.92800000   -32.39730000    12.90000000
   68.89610000   -32.39680000    11.80000000
   68.86400000   -32.39580000    10.40000000
   68.83200000   -32.39580000     7.40000000
   68.80000000   -32.39570000    10.70000000
   68.76800000   -32.39570000    11.80000000
   68.73600000   -32.39560000    12.80000000
   68.70390000   -32.39560000    10.70000000
   68.67190000   -32.39550000     9.60000000
   68.63990000   -32.39550000    10.70000000
   68.60790000   -32.39540000    11.80000000
   68.57590000   -32.39540000    11.80000000
   68.54390000   -32.39530000    10.70000000
   68.51180000   -32.39530000    10.70000000
   68.47980000   -32.39520000     9.60000000
   68.42860000   -32.39520000     8.40000000
   68.41580000   -32.39510000     6.20000000
   68.38380000   -32.39510000     6.20000000
   68.35170000   -32.39510000     7.40000000
   68.31970000   -32.39500000     9.40000000
   68.28750000   -32.39520000    11.20000000
   68.25520000   -32.39550000    11.20000000
   68.22300000   -32.39570000     8.90000000
   68.19070000   -32.39600000    12.20000000
   68.15850000   -32.39630000     8.90000000
   68.12620000   -32.39660000     4.60000000
   68.09420000   -32.39710000     6.50000000
   68.06240000   -32.39790000     8.60000000
   68.03060000   -32.39860000    10.70000000
   67.99880000   -32.39940000    10.70000000
   67.96680000   -32.40010000     7.60000000
   67.93400000   -32.40060000     7.60000000
   67.90110000   -32.40110000    11.80000000
   67.86830000   -32.40170000    14.90000000
   67.83550000   -32.40220000    16.00000000
   67.80270000   -32.40270000    14.90000000
   67.76990000   -32.40320000    14.90000000
   67.73800000   -32.40360000    13.80000000
   67.70630000   -32.40380000    11.60000000
   67.67430000   -32.40410000     8.90000000
   67.64230000   -32.40440000     7.80000000
   67.61030000   -32.40470000    11.90000000
   67.57830000   -32.40500000    17.30000000
   67.54670000   -32.40360000    20.30000000
   67.51500000   -32.40220000    20.30000000
   67.48330000   -32.40080000    19.40000000
   67.45170000   -32.39940000    18.40000000
   67.42000000   -32.39800000    17.40000000
   67.38830000   -32.39670000    16.50000000
   67.35550000   -32.39690000    10.90000000
   67.32260000   -32.39710000    14.20000000
   67.28970000   -32.39730000    15.30000000
   67.25690000   -32.39750000    16.30000000
   67.22400000   -32.39780000    17.30000000
   67.19110000   -32.39800000    15.20000000
   67.15830000   -32.39820000    17.30000000
   67.12540000   -32.39840000    17.30000000
   67.09290000   -32.39860000    15.90000000
   67.06050000   -32.39890000    12.70000000
   67.02800000   -32.39910000    10.40000000
   66.99560000   -32.39930000    10.40000000
   66.96310000   -32.39950000    10.40000000
   66.93060000   -32.39970000    10.40000000
   66.89820000   -32.40000000     7.20000000
   66.86600000   -32.40100000     4.60000000
   66.83390000   -32.40220000     2.30000000
   66.81790000   -32.40280000     1.10000000
   66.72070000   -32.40840000    -8.70000000
   66.68880000   -32.40960000    -3.50000000
   66.65690000   -32.41080000    -1.40000000
   66.62490000   -32.41210000     4.00000000
   66.59300000   -32.41330000    10.40000000
   66.56100000   -32.41450000    12.40000000
   66.52910000   -32.41580000    15.60000000
   66.49710000   -32.41700000    17.50000000
   66.46520000   -32.41820000    18.50000000
   66.43330000   -32.41950000    19.50000000
   66.40130000   -32.42070000    20.50000000
   66.36940000   -32.42190000    19.30000000
   66.33740000   -32.42310000    20.30000000
   66.30550000   -32.42440000    22.30000000
   66.27360000   -32.42560000    19.00000000
   66.24160000   -32.42680000    16.80000000
   66.20970000   -32.42810000    17.80000000
   66.17970000   -32.42720000    23.50000000
   66.15020000   -32.42590000    23.60000000
   66.12070000   -32.42450000    21.60000000
   66.10590000   -32.42380000    21.80000000
   66.16830000   -32.45170000    20.00000000
   66.18940000   -32.46120000    23.30000000
   66.21060000   -32.47080000    25.80000000
   66.23300000   -32.48110000    30.80000000
   66.25550000   -32.49130000    32.00000000
   66.27610000   -32.50160000    29.80000000
   66.29620000   -32.51190000    31.10000000
   66.31630000   -32.52220000    29.30000000
   66.33640000   -32.53240000    26.30000000
   66.35650000   -32.54270000    24.30000000
   66.37660000   -32.55300000    20.30000000
   66.39670000   -32.56330000    10.80000000
   66.41910000   -32.57480000     9.90000000
   66.44150000   -32.58620000     2.50000000
   66.46390000   -32.59760000    -2.80000000
   66.48630000   -32.60910000    -6.00000000
   66.50870000   -32.62050000    -4.80000000
   66.53110000   -32.63200000    -0.40000000
   66.55350000   -32.64340000     4.30000000
   66.57590000   -32.65480000     9.80000000
   66.59830000   -32.66630000    11.10000000
   66.53050000   -32.66840000    13.70000000
   66.51610000   -32.66880000    11.40000000
   66.50890000   -32.66900000    11.40000000
   66.40680000   -32.67020000    -4.40000000
   66.24680000   -32.66460000    18.70000000
   66.21580000   -32.66180000    23.30000000
   66.18470000   -32.65890000    24.60000000
   66.15360000   -32.65610000    28.00000000
   66.12250000   -32.65320000    25.00000000
   66.09150000   -32.65040000    22.00000000
   66.06040000   -32.64750000    21.30000000
   66.02930000   -32.64470000    25.80000000
   65.99820000   -32.64190000    28.10000000
   65.96720000   -32.63900000    28.40000000
   65.93610000   -32.63620000    27.50000000
   65.90500000   -32.63330000    25.60000000
   65.87320000   -32.63020000    19.00000000
   65.84120000   -32.62700000    15.80000000
   65.80920000   -32.62380000    11.70000000
   65.77720000   -32.62070000     6.60000000
   65.74530000   -32.61750000     5.80000000
   65.71330000   -32.61430000     6.00000000
   65.68130000   -32.61120000     0.90000000
   65.46040000   -32.58230000     1.80000000
   65.43240000   -32.57130000    10.40000000
   65.40430000   -32.56030000    15.60000000
   65.37620000   -32.54940000    20.80000000
   65.34780000   -32.53880000    24.80000000
   65.31920000   -32.52840000    28.80000000
   65.08740000   -32.44460000    14.60000000
   65.05810000   -32.43370000    13.80000000
   65.02830000   -32.42230000    13.70000000
   65.01300000   -32.34130000    -5.20000000
   65.02670000   -32.32170000    -7.90000000
   65.04070000   -32.30120000    -7.60000000
   65.05470000   -32.28070000    -9.20000000
   65.06880000   -32.26030000    -8.60000000
   65.08280000   -32.23980000   -10.20000000
   65.09680000   -32.21930000   -13.90000000
   65.11090000   -32.19890000   -11.20000000
   65.12490000   -32.17840000   -12.70000000
   65.13890000   -32.15790000   -13.20000000
   65.15300000   -32.13750000   -15.90000000
   65.16700000   -32.11700000   -17.40000000
   65.18100000   -32.09650000   -11.40000000
   65.19540000   -32.07660000    -8.90000000
   65.20990000   -32.05690000    -6.20000000
   65.22430000   -32.03730000    -4.60000000
   65.23860000   -32.01800000    -4.60000000
   65.25280000   -31.99870000    -1.90000000
   65.26700000   -31.97940000     1.90000000
   65.28130000   -31.96000000     1.30000000
   65.29550000   -31.94070000     2.80000000
   65.30970000   -31.92140000     3.30000000
   65.32570000   -31.90400000     5.00000000
   65.34170000   -31.88670000     8.60000000
   65.35590000   -31.86880000     8.70000000
   65.37010000   -31.85090000    10.20000000
   65.38430000   -31.83300000     6.20000000
   65.39850000   -31.81510000     5.60000000
   65.41270000   -31.79720000    11.30000000
   65.42680000   -31.77930000    14.90000000
   65.44100000   -31.76140000    18.40000000
   65.45520000   -31.74350000    21.00000000
   65.46940000   -31.72560000    20.30000000
   65.48360000   -31.70770000    19.50000000
   65.49810000   -31.68970000    20.50000000
   65.51360000   -31.67140000    20.90000000
   65.52920000   -31.65310000    20.30000000
   65.54470000   -31.63480000    21.60000000
   65.56030000   -31.61650000    27.40000000
   65.57580000   -31.59810000    30.00000000
   65.59130000   -31.57990000    31.40000000
   65.60670000   -31.56170000    35.00000000
   65.62210000   -31.54350000    34.30000000
   65.63760000   -31.52520000    32.50000000
   65.65300000   -31.50700000    31.80000000
   65.66850000   -31.48880000    30.10000000
   65.68390000   -31.47050000    30.40000000
   65.69940000   -31.45230000    28.80000000
   65.71480000   -31.43410000    25.80000000
   65.73030000   -31.41580000    23.00000000
   65.74570000   -31.39760000    25.50000000
   65.76100000   -31.37930000    24.10000000
   65.77600000   -31.36090000    24.50000000
   65.79110000   -31.34250000    22.80000000
   65.80610000   -31.32410000    23.10000000
   65.82120000   -31.30560000    19.30000000
   65.83620000   -31.28720000    16.40000000
   65.85120000   -31.26880000    14.70000000
   65.86670000   -31.25000000    14.80000000
   65.88280000   -31.23120000    13.40000000
   65.89890000   -31.21250000    13.90000000
   65.91510000   -31.19370000    12.20000000
   65.93040000   -31.17500000     8.30000000
   65.94540000   -31.15620000     9.80000000
   65.96040000   -31.13750000    13.40000000
   65.97550000   -31.11870000    17.00000000
   65.99050000   -31.10000000    13.20000000
   66.00560000   -31.08120000    10.40000000
   66.02060000   -31.06250000     7.60000000
   66.03620000   -31.04410000     5.30000000
   66.05200000   -31.02590000     3.50000000
   66.07170000   -30.96670000    -4.70000000
   66.08890000   -30.94880000    -4.90000000
   66.10620000   -30.93090000    -5.60000000
   66.12350000   -30.91300000    -7.40000000
   66.14080000   -30.89510000    -6.00000000
   66.15810000   -30.87720000    -3.50000000
   66.17560000   -30.85950000    -0.20000000
   66.19320000   -30.84210000     7.80000000
   66.21080000   -30.82460000    14.40000000
   66.22840000   -30.80720000    22.30000000
   66.24600000   -30.78970000    29.10000000
   66.26360000   -30.77230000    30.50000000
   66.28120000   -30.75480000    28.60000000
   66.29880000   -30.73740000    24.60000000
   66.31640000   -30.71990000    21.80000000
   66.33400000   -30.70240000    18.70000000
   66.35170000   -30.68500000    15.90000000
   66.36890000   -30.66770000    10.30000000
   66.38620000   -30.65050000     6.20000000
   66.40350000   -30.63320000     5.40000000
   66.42070000   -30.61590000     7.90000000
   66.43800000   -30.59870000    10.30000000
   66.45530000   -30.58140000    17.00000000
   66.47250000   -30.56410000    22.80000000
   66.48980000   -30.54680000    24.00000000
   66.50710000   -30.52960000    20.00000000
   66.52430000   -30.51230000    17.00000000
   66.54160000   -30.49500000    14.20000000
   66.55890000   -30.47780000    11.20000000
   66.57610000   -30.46050000    13.40000000
   66.59340000   -30.44320000    14.90000000
   66.61070000   -30.42600000    16.30000000
   66.62800000   -30.40870000    15.40000000
   66.64530000   -30.39170000    14.90000000
   66.66260000   -30.37520000    11.90000000
   66.68020000   -30.35850000    10.40000000
   66.69770000   -30.34180000    10.70000000
   66.71530000   -30.32510000    10.90000000
   66.73290000   -30.30840000    11.10000000
   66.75040000   -30.29170000    10.30000000
   66.76800000   -30.27500000    10.40000000
   66.78630000   -30.25840000    13.40000000
   66.80510000   -30.24180000    13.60000000
   66.82400000   -30.22510000    13.80000000
   66.84250000   -30.20800000    12.70000000
   66.86060000   -30.19080000    11.80000000
   66.87880000   -30.17350000    12.10000000
   66.89670000   -30.15650000    10.90000000
   66.91460000   -30.13940000     8.90000000
   66.93250000   -30.12240000     7.10000000
   66.95040000   -30.10540000     7.40000000
   66.96830000   -30.08830000     9.80000000
   66.98640000   -30.07080000    13.70000000
   67.00440000   -30.05330000    16.00000000
   67.02250000   -30.03580000    15.30000000
   67.04060000   -30.01830000    12.40000000
   67.05860000   -30.00080000     7.30000000
   67.07670000   -29.98330000     8.60000000
   67.09540000   -29.96570000    13.60000000
   67.12350000   -29.92520000    12.70000000
   67.13710000   -29.90460000    15.40000000
   67.15060000   -29.88410000    16.90000000
   67.16410000   -29.86230000    15.40000000
   67.17770000   -29.84030000    12.90000000
   67.19120000   -29.81820000    12.40000000
   67.20480000   -29.79610000    15.30000000
   67.21830000   -29.77400000    15.90000000
   67.23180000   -29.75190000    15.40000000
   67.24540000   -29.72990000    16.00000000
   67.25890000   -29.70780000    15.70000000
   67.27240000   -29.68580000    15.10000000
   67.28580000   -29.66380000    13.60000000
   67.29930000   -29.64180000    10.90000000
   67.31270000   -29.61980000    11.60000000
   67.32620000   -29.59790000    11.20000000
   67.33960000   -29.57590000    10.70000000
   67.35310000   -29.55390000    11.30000000
   67.36650000   -29.53190000    10.90000000
   67.38000000   -29.50990000    12.60000000
   67.39340000   -29.48800000    14.20000000
   67.40690000   -29.46600000    13.80000000
   67.43590000   -29.43340000     4.70000000
   67.44840000   -29.41120000     7.50000000
   67.46050000   -29.38870000     6.10000000
   67.47140000   -29.36540000     7.90000000
   67.48230000   -29.34220000     8.60000000
   67.49320000   -29.31890000     5.00000000
   67.50410000   -29.29560000     3.50000000
   67.51500000   -29.27240000     3.10000000
   67.44330000   -29.18480000    10.20000000
   67.42380000   -29.16310000    11.40000000
   67.40420000   -29.14150000    11.90000000
   67.38470000   -29.12000000    11.40000000
   67.32590000   -29.05540000    14.20000000
   67.30630000   -29.03390000    14.80000000
   67.28670000   -29.01240000    14.30000000
   67.26720000   -28.99080000    12.70000000
   67.24760000   -28.96930000     9.90000000
   67.22800000   -28.94780000    12.70000000
   67.20840000   -28.92620000    13.30000000
   67.18930000   -28.90430000    15.40000000
   67.17110000   -28.88170000    16.00000000
   67.15320000   -28.85950000    17.30000000
   67.13530000   -28.83720000    15.80000000
   67.11740000   -28.81500000    15.30000000
   67.09950000   -28.79280000    15.90000000
   67.08160000   -28.77060000    13.30000000
   67.06370000   -28.74830000    12.90000000
   67.04580000   -28.72610000     5.90000000
   67.02790000   -28.70390000     5.40000000
   67.01000000   -28.68170000     6.00000000
   66.98820000   -28.66060000     1.40000000
   66.96630000   -28.63960000     1.90000000
   66.94450000   -28.61860000     1.40000000
   66.92270000   -28.59750000     1.90000000
   66.90180000   -28.57690000     2.80000000
   66.88130000   -28.55650000     3.30000000
   66.86070000   -28.53600000     5.90000000
   66.84010000   -28.51550000    11.80000000
   66.77880000   -28.45440000    18.80000000
   66.75850000   -28.43420000    22.50000000
   66.73820000   -28.41390000    26.10000000
   66.71780000   -28.39360000    18.00000000
   66.67720000   -28.35310000     7.10000000
   66.65680000   -28.33280000    -1.20000000
   66.63650000   -28.31250000   -12.70000000
   66.61610000   -28.29220000   -17.60000000
   66.55510000   -28.23140000   -13.40000000
   66.53480000   -28.21110000    -9.70000000
   66.49410000   -28.17060000    -3.30000000
   66.47380000   -28.15030000    -0.70000000
   66.45350000   -28.13010000    -0.40000000
   66.43310000   -28.10980000     0.20000000
   66.41350000   -28.09170000     4.10000000
   66.39450000   -28.07510000     7.50000000
   66.37540000   -28.05850000    10.90000000
   66.35630000   -28.04190000    14.30000000
   66.23440000   -28.13320000    21.90000000
   66.22220000   -28.14270000    33.10000000
   66.18540000   -28.17110000    71.00000000
   66.16090000   -28.19010000    98.70000000
   66.13650000   -28.20910000   100.50000000
   66.11090000   -28.22620000    81.50000000
   66.08460000   -28.24220000    60.80000000
   66.05820000   -28.25820000    38.00000000
   66.00680000   -28.46620000    48.00000000
   65.98170000   -28.48690000    41.00000000
   65.95670000   -28.50760000    36.10000000
   65.93390000   -28.52810000    43.10000000
   65.91440000   -28.54850000    39.50000000
   65.89500000   -28.56890000    21.80000000
   65.87550000   -28.58930000    12.70000000
   65.85610000   -28.60960000     5.70000000
   65.83670000   -28.63000000    -1.30000000
   65.81400000   -28.65110000    -8.40000000
   65.79140000   -28.67210000   -10.10000000
   65.76880000   -28.69320000   -13.80000000
   65.15090000   -29.27060000    15.60000000
   65.12910000   -29.28910000     8.70000000
   65.10720000   -29.30770000    -0.40000000
   65.08540000   -29.32620000    -8.30000000
   65.06350000   -29.34480000    -7.60000000
   65.04170000   -29.36330000     4.10000000
   65.02000000   -29.38180000    14.10000000
   64.99840000   -29.40020000    14.80000000
   64.97680000   -29.41870000     7.00000000
   64.95520000   -29.43710000     8.70000000
   64.93350000   -29.45560000     8.40000000
   64.17150000   -30.13390000    -9.40000000
   64.14440000   -30.14130000   -10.10000000
   64.11720000   -30.14870000   -10.70000000
   64.09000000   -30.15610000   -13.40000000
   64.06280000   -30.16350000   -20.80000000
   64.03550000   -30.17090000   -21.30000000
   64.00830000   -30.17830000   -19.80000000
   63.98160000   -30.18670000   -17.00000000
   63.95490000   -30.19500000   -15.40000000
   63.92810000   -30.20330000   -16.10000000
   63.90140000   -30.21170000   -19.00000000
   63.87470000   -30.22000000   -10.70000000
   63.84800000   -30.22830000    -6.90000000
   63.82120000   -30.23670000    -3.00000000
   63.79450000   -30.24500000    -1.30000000
   63.76780000   -30.25330000     0.40000000
   63.74100000   -30.26170000    -0.50000000
   63.71420000   -30.27010000    -1.30000000
   63.68740000   -30.27880000    -1.90000000
   63.66050000   -30.28750000    -0.50000000
   63.63360000   -30.29620000    -1.10000000
   63.60670000   -30.30490000     0.60000000
   63.57990000   -30.31350000     2.30000000
   63.55310000   -30.32220000     4.00000000
   63.52630000   -30.33080000     1.00000000
   63.49950000   -30.33950000    -2.00000000
   63.47270000   -30.34810000    -5.00000000
   63.44640000   -30.35680000    -1.20000000
   63.42060000   -30.36560000    -1.90000000
   63.39480000   -30.37440000    -7.20000000
   63.36900000   -30.38320000    -7.90000000
   63.34320000   -30.39200000   -13.10000000
   63.31740000   -30.40070000   -15.90000000
   63.29160000   -30.40950000   -18.90000000
   63.26580000   -30.41830000   -19.60000000
   63.24010000   -30.42710000   -20.30000000
   63.21430000   -30.43580000   -23.30000000
   63.18850000   -30.44460000   -21.60000000
   63.16270000   -30.45340000   -17.80000000
   63.13690000   -30.46220000   -14.10000000
   63.11100000   -30.47100000    -5.90000000
   63.08510000   -30.47980000     0.20000000
   63.05920000   -30.48860000    -0.60000000
   63.03330000   -30.49740000     1.10000000
   63.00730000   -30.50620000     2.60000000
   62.98140000   -30.51500000     8.70000000
   62.95550000   -30.52390000    10.40000000
   62.92960000   -30.53270000    11.90000000
   62.90370000   -30.54150000    13.40000000
   62.87620000   -30.55010000     5.50000000
   62.84780000   -30.55850000     4.80000000
   62.81930000   -30.56700000     4.20000000
   62.79080000   -30.57550000    -3.30000000
   62.76240000   -30.58400000    -6.40000000
   62.73390000   -30.59240000    -7.00000000
   62.70540000   -30.60090000   -12.20000000
   62.67690000   -30.60940000   -12.90000000
   62.64850000   -30.61780000   -15.80000000
   62.62010000   -30.62630000   -18.30000000
   62.59170000   -30.63470000   -23.50000000
   62.56330000   -30.64320000   -24.30000000
   62.53490000   -30.65160000   -24.90000000
   62.44960000   -30.67690000   -30.30000000
   62.42120000   -30.68530000   -24.10000000
   62.39280000   -30.69380000   -22.60000000
   62.36440000   -30.70220000   -12.10000000
   62.33600000   -30.71070000    -8.20000000
   62.30760000   -30.71910000    -4.50000000
   62.27920000   -30.72750000    -0.70000000
   62.25080000   -30.73600000     3.30000000
   62.22240000   -30.74440000     9.40000000
   62.19400000   -30.75280000    10.90000000
   62.16560000   -30.76130000    14.90000000
   62.13720000   -30.76970000    20.90000000
   62.10880000   -30.77820000    24.80000000
   62.08040000   -30.78660000    28.60000000
   62.05280000   -30.79450000    34.50000000
   62.02650000   -30.80180000    20.30000000
   62.00010000   -30.80900000    -7.40000000
   61.97380000   -30.81620000   -16.90000000
   61.94730000   -30.82340000   -22.10000000
   61.92090000   -30.83070000   -29.50000000
   61.89440000   -30.83790000   -25.50000000
   61.86800000   -30.84520000   -23.90000000
   61.84150000   -30.85240000   -19.90000000
   61.81510000   -30.85960000   -20.50000000
   61.78860000   -30.86690000   -18.80000000
   61.75810000   -30.87490000   -27.30000000
   61.72660000   -30.88310000   -32.50000000
   61.69500000   -30.89130000   -35.30000000
   61.66350000   -30.89950000   -36.00000000
   61.63200000   -30.90770000   -29.80000000
   61.60040000   -30.91590000   -19.30000000
   61.56890000   -30.92410000   -13.20000000
   61.53730000   -30.93230000    -0.40000000
   61.50580000   -30.94050000     6.00000000
   61.47430000   -30.94870000     7.60000000
   61.34710000   -30.98180000    14.40000000
   61.31520000   -30.99010000    18.30000000
   61.28330000   -30.99840000    22.10000000
   61.25140000   -31.00670000    23.60000000
   61.21830000   -31.01530000    33.80000000
   61.18500000   -31.02410000    46.50000000
   61.15170000   -31.03280000    52.60000000
