   58.48650000    12.93670000   -69.30000000
   58.48590000    12.90830000   -71.20000000
   58.48530000    12.87990000   -70.10000000
   58.48470000    12.85140000   -66.90000000
   58.48410000    12.82300000   -63.80000000
   58.48350000    12.79460000   -59.50000000
   58.48290000    12.76610000   -53.30000000
   58.48230000    12.73770000   -47.10000000
   58.48170000    12.70930000   -42.00000000
   58.48110000    12.68080000   -38.80000000
   58.48050000    12.65240000   -33.80000000
   58.39380000    12.61990000   -48.60000000
   58.36510000    12.61850000   -57.80000000
   58.33640000    12.61710000   -65.90000000
   58.30770000    12.61570000   -72.00000000
   58.27910000    12.61440000   -77.00000000
   58.25040000    12.61300000   -79.00000000
   58.22170000    12.61160000   -67.70000000
   58.20730000    12.61090000   -57.50000000
   58.19300000    12.61020000   -38.00000000
   58.17860000    12.60960000   -22.80000000
   58.13560000    12.60750000    27.40000000
   58.10690000    12.60610000    42.80000000
   58.07820000    12.60480000    44.80000000
   58.04950000    12.60340000    40.80000000
   58.02080000    12.60200000    34.80000000
   57.99210000    12.60060000    31.80000000
   57.96350000    12.59930000    33.80000000
   58.38350000    12.52520000   -49.00000000
   58.41140000    12.53170000   -43.30000000
   58.43950000    12.53780000   -38.00000000
   58.46760000    12.54270000   -34.00000000
   58.50380000    12.54770000   -24.10000000
   58.52080000    12.54990000   -21.10000000
   58.57620000    12.56250000   -17.80000000
   58.60380000    12.56880000   -15.90000000
   58.63150000    12.57500000   -11.10000000
   58.68890000    12.57650000     5.10000000
   58.71800000    12.57480000    15.30000000
   58.74720000    12.57320000    22.40000000
   58.77630000    12.57150000    20.40000000
   58.80540000    12.56980000    12.40000000
   58.83460000    12.56820000     4.40000000
   58.86370000    12.56650000    -5.00000000
   58.89280000    12.56490000   -10.90000000
   58.92200000    12.56320000   -11.90000000
   58.95110000    12.56160000   -11.90000000
   58.79510000    12.55160000    20.10000000
   58.76910000    12.55000000    29.30000000
   58.74310000    12.54830000    30.40000000
   58.71710000    12.54660000    25.30000000
   58.69110000    12.54500000    17.30000000
   58.60950000    12.54060000    -8.30000000
   58.59450000    12.54000000   -12.40000000
   58.57960000    12.54150000   -13.40000000
   58.56470000    12.54300000   -14.40000000
   58.54970000    12.54450000   -18.50000000
   58.53480000    12.54600000   -19.60000000
   58.48120000    12.55230000   -25.40000000
   58.45370000    12.55550000   -30.80000000
   58.42630000    12.55870000   -36.00000000
   58.39890000    12.56190000   -44.30000000
   58.36020000    12.56700000   -59.60000000
   58.34040000    12.57060000   -65.90000000
   58.30080000    12.57260000   -73.90000000
   58.28100000    12.57350000   -78.00000000
   58.26130000    12.57450000   -79.10000000
   58.24150000    12.57550000   -72.00000000
   58.22170000    12.57650000   -61.80000000
   58.21180000    12.57700000   -52.50000000
   58.20200000    12.57750000   -44.50000000
   58.19210000    12.57800000   -33.30000000
   58.18220000    12.57840000   -21.00000000
   58.17230000    12.57890000   -10.90000000
   58.16240000    12.57940000    -0.70000000
   58.15250000    12.57990000    10.60000000
   58.14260000    12.58040000    20.80000000
   58.12290000    12.58140000    35.00000000
   58.10310000    12.58240000    39.00000000
   58.08330000    12.58330000    39.00000000
   58.06360000    12.58430000    37.00000000
   58.04380000    12.58530000    34.80000000
   58.09950000    12.67610000    51.30000000
   58.11520000    12.70000000    35.00000000
   58.12300000    12.71190000    24.30000000
   58.13090000    12.72380000    19.80000000
   58.13870000    12.73580000     8.20000000
   58.14660000    12.74770000     2.50000000
   58.15440000    12.75960000    -5.20000000
   58.16200000    12.77060000   -19.50000000
   58.14150000    12.86370000   -23.30000000
   58.11600000    12.87730000   -21.80000000
   58.09050000    12.89080000   -22.30000000
   58.06500000    12.90440000   -20.80000000
   58.03950000    12.91790000   -18.30000000
   58.01400000    12.93150000   -16.80000000
   57.98850000    12.94500000   -15.30000000
   57.96360000    12.95920000    -9.60000000
   57.93970000    12.97430000    -8.10000000
   57.91580000    12.98940000    -4.60000000
   57.89190000    13.00440000     0.10000000
   57.86810000    13.01950000     2.50000000
   57.84420000    13.03460000     9.10000000
   57.82030000    13.04970000    17.60000000
   57.62870000    13.16450000    10.90000000
   57.60470000    13.17820000     1.30000000
   57.58080000    13.19190000    -5.50000000
   57.55690000    13.20550000   -13.20000000
   57.53290000    13.21920000   -10.70000000
   57.50900000    13.23280000    -2.00000000
   57.48510000    13.24650000    -2.50000000
   57.46120000    13.26020000    -8.30000000
   57.43720000    13.27380000    -9.80000000
   57.41330000    13.28750000    -7.30000000
   57.38940000    13.30110000     2.50000000
   57.36600000    13.31440000    11.90000000
   57.34360000    13.32700000    25.60000000
   57.32110000    13.33960000    36.30000000
   57.29870000    13.35220000    42.00000000
   57.27770000    13.36550000    48.30000000
   57.25670000    13.37890000    50.80000000
   57.23570000    13.39220000    52.30000000
   57.21470000    13.40550000    52.80000000
   57.19380000    13.41890000    50.30000000
   57.17280000    13.43220000    49.80000000
   57.15180000    13.44560000    47.10000000
   57.13090000    13.45890000    44.50000000
   57.10990000    13.47220000    37.80000000
   57.08890000    13.48560000    33.30000000
   57.06800000    13.49890000    31.80000000
   57.04700000    13.51230000    29.10000000
   57.02600000    13.52560000    24.50000000
   57.00510000    13.53890000    18.80000000
   56.98410000    13.55230000    15.30000000
   56.96310000    13.56560000    10.70000000
   56.94220000    13.57900000     8.10000000
   56.92120000    13.59230000     9.60000000
   56.90020000    13.60560000    10.10000000
   56.87910000    13.61900000    12.40000000
   56.85800000    13.63240000    13.90000000
   56.83700000    13.64580000    14.30000000
   56.81590000    13.65920000    10.70000000
   56.79480000    13.67260000     8.10000000
   56.77370000    13.68600000     6.60000000
   56.75260000    13.69940000     7.00000000
   56.73150000    13.71280000     5.50000000
   56.71050000    13.72620000     5.90000000
   56.68940000    13.73960000     5.40000000
   56.66830000    13.75300000     3.80000000
   56.64720000    13.76640000     2.10000000
   56.62610000    13.77980000     0.60000000
   56.60500000    13.79320000     0.10000000
   56.58400000    13.80650000     2.50000000
   56.56290000    13.81990000     7.10000000
   56.54180000    13.83330000    12.70000000
   56.52070000    13.84670000    23.30000000
   56.49960000    13.86020000    32.80000000
   56.47840000    13.87360000    37.30000000
   56.45720000    13.88700000    38.80000000
   56.43610000    13.90040000    40.30000000
   56.41490000    13.91390000    38.80000000
   56.39380000    13.92730000    35.10000000
   56.37260000    13.94070000    31.40000000
   56.35140000    13.95410000    27.80000000
   56.33030000    13.96760000    25.30000000
   56.30910000    13.98100000    24.60000000
   56.28800000    13.99440000    25.10000000
   56.26680000    14.00780000    24.50000000
   56.24560000    14.02130000    24.00000000
   56.22450000    14.03470000    22.40000000
   56.20330000    14.04810000    21.80000000
   56.18190000    14.06170000    20.80000000
   56.16050000    14.07520000    23.30000000
   56.13910000    14.08880000    29.80000000
   56.11770000    14.10230000    35.30000000
   56.09630000    14.11590000    37.80000000
   56.07490000    14.12940000    36.10000000
   56.05350000    14.14300000    31.50000000
   56.03040000    14.15940000    21.50000000
   56.00730000    14.17590000    16.80000000
   55.98430000    14.19230000    12.90000000
   55.96120000    14.20880000    15.40000000
   55.93810000    14.22520000    18.80000000
   55.91360000    14.23810000    17.60000000
   55.88910000    14.25100000    17.10000000
   55.86470000    14.26360000    15.90000000
   55.84030000    14.27590000    13.40000000
   55.81590000    14.28830000    12.80000000
   55.79150000    14.30070000    13.30000000
   55.76710000    14.31300000    13.80000000
   55.74270000    14.32540000    14.30000000
   55.71840000    14.33770000    16.80000000
   55.69400000    14.35010000    17.30000000
   55.66960000    14.36250000    21.80000000
   55.64520000    14.37480000    26.30000000
   55.62080000    14.38720000    27.80000000
   55.59640000    14.39960000    31.40000000
   55.57120000    14.41150000    27.40000000
   55.54550000    14.42320000    28.00000000
   55.51970000    14.43490000    26.40000000
   55.49390000    14.44660000    25.90000000
   55.46680000    14.45380000    25.10000000
   55.43960000    14.46100000    26.90000000
   55.41240000    14.46820000    30.60000000
   55.38530000    14.47540000    31.30000000
   55.35810000    14.48260000    35.10000000
   55.33090000    14.48980000    36.80000000
   55.30380000    14.49700000    39.60000000
   55.27660000    14.50420000    41.30000000
   55.24940000    14.51140000    44.00000000
   55.22220000    14.51860000    44.80000000
   55.16790000    14.53300000    43.00000000
   55.14070000    14.54020000    39.80000000
   55.11330000    14.54730000    31.30000000
   55.08500000    14.55350000    21.80000000
   55.05660000    14.55980000    12.40000000
   55.02820000    14.56610000     9.20000000
   54.99990000    14.57230000     6.80000000
   54.94940000    14.60060000    10.40000000
   54.92420000    14.61470000    14.90000000
   54.89900000    14.62890000    17.30000000
   54.87380000    14.64300000    19.80000000
   54.84850000    14.65720000    18.10000000
   54.82310000    14.67050000    14.80000000
   54.79750000    14.68370000    16.30000000
   54.78950000    14.79010000    15.40000000
   54.78880000    14.80360000    24.00000000
   54.78810000    14.81700000    31.60000000
   54.78740000    14.83050000    39.10000000
   54.78670000    14.84400000    46.80000000
   54.78600000    14.85740000    53.30000000
   54.78530000    14.87090000    56.80000000
   54.78390000    14.89760000    58.50000000
   54.78250000    14.92410000    54.30000000
   54.77830000    14.84550000    38.50000000
   54.77690000    14.81930000    24.30000000
   54.77550000    14.79310000    10.30000000
   54.77410000    14.76690000     0.20000000
   54.77270000    14.74840000    -3.10000000
   54.65320000    14.70170000     3.80000000
   54.62460000    14.69430000     4.10000000
   54.59600000    14.68700000     1.30000000
   54.56740000    14.67960000    -3.50000000
   54.53880000    14.67230000    -8.40000000
   54.51030000    14.66490000   -11.10000000
   54.48170000    14.65760000   -15.90000000
   54.45310000    14.65020000   -21.60000000
   54.42450000    14.64290000   -24.30000000
   54.39600000    14.63550000   -26.00000000
   54.36740000    14.62820000   -25.80000000
   54.33880000    14.62080000   -23.40000000
   54.31020000    14.61350000   -22.00000000
   54.28170000    14.60610000   -16.60000000
   54.25310000    14.59880000   -14.30000000
   54.22450000    14.59140000    -8.90000000
   54.19590000    14.58410000    -2.50000000
   54.16740000    14.57670000     1.00000000
   54.13880000    14.56940000     0.40000000
   54.11050000    14.56210000    -0.90000000
   54.08210000    14.55480000     0.60000000
   54.05380000    14.54750000     1.80000000
   54.02550000    14.54020000     8.40000000
   54.01140000    14.53660000    15.70000000
   53.99720000    14.53290000    22.90000000
   53.98300000    14.52930000    31.30000000
   53.96890000    14.52570000    40.50000000
   53.94060000    14.51840000    51.00000000
   53.91230000    14.51110000    58.50000000
   53.89810000    14.50740000    53.50000000
   53.88390000    14.50380000    28.30000000
   53.86980000    14.50020000    14.10000000
   53.85560000    14.49650000     8.20000000
   53.82730000    14.48920000    -0.90000000
   53.79900000    14.48190000    15.90000000
   53.78480000    14.47830000    28.30000000
   53.77070000    14.47470000    40.60000000
   53.75650000    14.47100000    51.00000000
   53.74240000    14.46740000    61.30000000
   53.71400000    14.46010000    61.80000000
   53.68570000    14.45280000    48.80000000
   53.67160000    14.44920000    41.80000000
   53.65740000    14.44550000    33.80000000
   53.62910000    14.43820000    24.90000000
   53.60140000    14.43110000    14.70000000
   53.57350000    14.42360000     2.10000000
   53.54530000    14.41550000   -12.90000000
   53.51700000    14.40740000   -20.60000000
   53.62110000    14.42300000    -4.80000000
   53.64730000    14.42660000     5.50000000
   53.67350000    14.43010000    15.40000000
   53.69960000    14.43360000    25.40000000
   53.72580000    14.43710000    35.50000000
   53.75200000    14.44060000    36.50000000
   53.77820000    14.44420000    30.10000000
   53.79130000    14.44590000    19.80000000
   53.80440000    14.44770000     4.50000000
   53.83060000    14.45130000   -10.60000000
   53.85700000    14.45540000    -8.70000000
   53.88340000    14.45950000     8.60000000
   53.89660000    14.46160000    24.80000000
   53.90970000    14.46380000    39.60000000
   53.92290000    14.46630000    51.80000000
   53.93600000    14.46870000    60.80000000
   53.96230000    14.47360000    65.80000000
   53.98850000    14.47850000    54.30000000
   54.01480000    14.48340000    45.00000000
   53.94260000    14.48360000    71.50000000
   53.92820000    14.48360000    64.40000000
   53.91370000    14.48370000    55.10000000
   53.89970000    14.48370000    39.50000000
   53.88570000    14.48370000    16.90000000
   53.87180000    14.48380000    10.90000000
   53.84530000    14.48380000    35.00000000
   53.73470000    14.44210000    44.10000000
   53.70640000    14.43490000    38.30000000
   53.69220000    14.43130000    32.30000000
   53.67810000    14.42770000    24.30000000
   53.64980000    14.42050000    11.40000000
   53.62150000    14.41330000    -4.70000000
   53.59320000    14.40600000   -16.50000000
   53.56490000    14.39880000   -23.40000000
   53.53660000    14.39160000   -25.10000000
   53.50830000    14.38440000   -24.80000000
   53.47990000    14.37720000   -21.40000000
   53.45160000    14.37000000   -10.90000000
   53.42330000    14.36270000    -4.60000000
   53.39500000    14.35550000    -4.30000000
   53.36670000    14.34830000   -10.10000000
   53.33830000    14.34110000   -15.10000000
   53.30990000    14.33380000   -16.80000000
   53.28160000    14.32660000   -13.40000000
   53.25320000    14.31940000   -10.10000000
   53.22480000    14.31210000    -7.70000000
   53.10930000    14.40810000    14.60000000
   53.09650000    14.40840000    16.50000000
   53.08370000    14.40880000    16.50000000
   53.07090000    14.40920000    18.60000000
   53.05820000    14.40830000    19.60000000
   52.97420000    14.40310000    22.50000000
   52.94520000    14.40140000    22.50000000
   52.91610000    14.39970000    22.60000000
   52.88710000    14.39800000    22.80000000
   52.85800000    14.39630000    22.80000000
   52.82900000    14.39450000    22.80000000
   52.79990000    14.39280000    24.90000000
   52.77090000    14.39110000    26.00000000
   52.74180000    14.38940000    28.30000000
   52.71280000    14.38770000    29.30000000
   52.68370000    14.38590000    30.30000000
   52.65460000    14.38420000    25.30000000
   52.62560000    14.38250000    19.30000000
   52.59650000    14.38080000    18.30000000
   52.56750000    14.37910000    17.40000000
   52.53840000    14.37740000    14.40000000
   52.50940000    14.37560000    13.60000000
   52.48000000    14.37390000    13.80000000
   52.45060000    14.37220000    16.90000000
   52.42170000    14.37130000    26.30000000
   52.39360000    14.37170000    36.30000000
   52.36500000    14.37210000    45.10000000
   52.33640000    14.37200000    53.80000000
   52.30800000    14.37130000    57.00000000
   52.27950000    14.37050000    58.00000000
   52.25100000    14.36970000    61.00000000
   52.22250000    14.36900000    64.20000000
   52.19400000    14.36820000    64.30000000
   52.16560000    14.36740000    67.30000000
   52.13710000    14.36670000    68.40000000
   52.10860000    14.36590000    65.40000000
   52.08010000    14.36510000    47.00000000
   52.06590000    14.36480000    31.80000000
   52.05170000    14.36440000     5.30000000
   52.03740000    14.36400000   -10.20000000
   52.02320000    14.36360000   -40.80000000
   52.00890000    14.36320000   -61.00000000
   51.99470000    14.36290000   -81.50000000
   51.98040000    14.36250000   -88.90000000
   51.96610000    14.36210000   -96.00000000
   51.93760000    14.36130000   -88.80000000
   51.92330000    14.36090000   -79.60000000
   51.90900000    14.36060000   -68.40000000
   51.89470000    14.36020000   -54.00000000
   51.88040000    14.35980000   -39.80000000
   51.86620000    14.35930000   -20.80000000
   51.85250000    14.35840000    -3.50000000
   51.83870000    14.35750000     9.90000000
   51.82490000    14.35660000    18.10000000
   51.79740000    14.35480000    33.50000000
   51.76990000    14.35290000    43.80000000
   51.74240000    14.35110000    47.00000000
   51.71480000    14.34930000    50.00000000
   51.68730000    14.34750000    50.10000000
   51.65980000    14.34560000    48.30000000
   51.63220000    14.34380000    42.10000000
   51.60470000    14.34200000    34.00000000
   51.57720000    14.34020000    29.00000000
   51.55080000    14.33900000    27.80000000
   51.51540000    14.26720000    29.30000000
   51.50360000    14.24320000    29.30000000
   51.49190000    14.21930000    32.30000000
   51.48010000    14.19540000    33.30000000
   51.46830000    14.17150000    34.30000000
   51.45650000    14.14750000    35.50000000
   51.44470000    14.12360000    33.30000000
   51.43300000    14.09970000    34.30000000
   51.42120000    14.07570000    35.50000000
   51.57020000    13.99090000    62.60000000
   51.58260000    13.98380000    56.80000000
   51.59500000    13.97680000    47.00000000
   51.60740000    13.96970000    42.10000000
   51.61990000    13.96260000    11.90000000
   51.63230000    13.95560000    -8.40000000
   51.64470000    13.94850000   -35.50000000
   51.55690000    13.97710000    71.60000000
   51.54450000    13.98170000    72.40000000
   51.53210000    13.98630000    70.20000000
   51.51970000    13.99090000    67.00000000
   51.50730000    13.99550000    61.60000000
   51.49490000    14.00010000    56.30000000
   51.70270000    13.86250000  -111.70000000
   51.71490000    13.85460000  -121.60000000
   51.72710000    13.84660000  -129.40000000
   51.75140000    13.83060000  -127.70000000
   51.76350000    13.82260000  -117.20000000
   51.77570000    13.81460000  -103.60000000
   51.78780000    13.80660000   -88.00000000
   51.80000000    13.79860000   -67.30000000
   51.82430000    13.78270000   -30.80000000
   51.84870000    13.76670000    -9.90000000
   51.87300000    13.75070000     1.10000000
   51.89730000    13.73480000     8.90000000
   51.92210000    13.71850000    11.90000000
   51.94690000    13.70230000    12.70000000
   51.97170000    13.68600000    13.30000000
   51.99640000    13.66980000    11.90000000
   52.02120000    13.65350000    11.60000000
   52.04600000    13.63730000    11.30000000
   52.07080000    13.62100000     8.90000000
   52.09560000    13.60480000     4.40000000
   52.12040000    13.58850000     5.10000000
   52.07990000    13.41920000     0.90000000
   52.07310000    13.39100000     1.00000000
   52.06640000    13.36280000     1.10000000
   52.05970000    13.33450000     2.30000000
   52.05290000    13.30630000     0.40000000
   52.04620000    13.27810000     1.40000000
   52.03940000    13.24990000     2.60000000
   52.03270000    13.22160000     6.90000000
   52.02590000    13.19340000     8.00000000
   52.01920000    13.16520000     9.10000000
   51.94730000    13.19020000     2.80000000
   51.92340000    13.19860000     1.40000000
   51.89950000    13.20690000    -1.00000000
   51.87550000    13.21530000    -3.50000000
   51.85160000    13.22360000    -3.80000000
   51.82760000    13.23200000    -2.00000000
   51.80370000    13.24030000    -1.30000000
   51.77980000    13.24860000     0.50000000
   51.75580000    13.25700000     3.10000000
   51.73180000    13.26600000     6.40000000
   51.70720000    13.27750000    14.10000000
   51.68260000    13.28900000    23.80000000
   51.65810000    13.30060000    33.50000000
   51.63520000    13.31450000    46.30000000
   51.61220000    13.32850000    48.80000000
   51.60080000    13.33540000    38.30000000
   51.58930000    13.34240000    23.80000000
   51.57780000    13.34940000    12.30000000
   51.56630000    13.35630000    -3.50000000
   51.55490000    13.36330000   -14.90000000
   51.54330000    13.37030000   -29.30000000
   51.51960000    13.38440000   -38.00000000
   51.49590000    13.39850000   -32.50000000
   51.47230000    13.41290000   -25.50000000
   51.44870000    13.42770000   -25.00000000
   51.42520000    13.44240000   -16.50000000
   51.41340000    13.44980000    -0.60000000
   51.37690000    13.47240000    12.90000000
   51.36460000    13.48010000    33.00000000
   51.35220000    13.48770000    52.10000000
   51.33990000    13.49540000    96.70000000
   51.32750000    13.50300000    86.20000000
   51.30390000    13.51880000    81.30000000
   51.28030000    13.53450000    70.50000000
   51.25670000    13.55030000    58.50000000
   51.23300000    13.56610000    46.60000000
   51.20910000    13.58210000    39.00000000
   51.18510000    13.59800000    32.30000000
   51.16110000    13.61400000    25.40000000
   51.13710000    13.63000000    20.80000000
   51.11310000    13.64600000    15.90000000
   51.21270000    13.59840000    62.00000000
   51.23760000    13.58550000    85.00000000
   51.26240000    13.57270000    94.70000000
   51.28730000    13.55980000   109.50000000
   51.31210000    13.54690000   126.30000000
   51.33700000    13.53410000   131.90000000
   51.36180000    13.52120000   134.40000000
   51.60210000    13.53610000   -41.10000000
   51.60350000    13.56300000   -48.00000000
   51.60420000    13.58980000   -54.30000000
   51.60500000    13.61660000   -63.50000000
   51.60570000    13.64340000   -75.90000000
   51.60630000    13.67020000   -90.20000000
   51.60630000    13.69700000  -103.60000000
   51.60630000    13.72380000  -109.80000000
   51.60620000    13.75060000  -110.90000000
   51.60620000    13.77700000  -105.90000000
   51.60700000    13.80360000   -92.70000000
   51.60890000    13.83050000   -80.60000000
   51.61090000    13.85670000   -66.50000000
   51.61280000    13.88270000   -49.10000000
   51.61470000    13.90870000   -27.80000000
   51.61570000    13.92170000   -18.10000000
   51.61670000    13.93470000    -6.60000000
   51.61760000    13.94770000     1.30000000
   51.61860000    13.96070000    12.90000000
   51.61950000    13.97380000    22.50000000
   51.62050000    13.98680000    37.30000000
   52.02320000    14.04350000    19.10000000
   52.04020000    14.06460000    19.30000000
   52.05720000    14.08560000    19.40000000
   52.07430000    14.10660000    19.50000000
   52.09190000    14.12800000    21.60000000
   52.10980000    14.14960000    23.80000000
   52.12760000    14.17110000    25.90000000
   52.18110000    14.23560000    33.30000000
   52.19830000    14.25820000    34.30000000
   52.21450000    14.28250000    40.30000000
   52.23060000    14.30670000    44.50000000
   52.24650000    14.36210000    58.00000000
   52.25410000    14.38920000    67.10000000
   52.26170000    14.41640000    58.60000000
   52.26930000    14.44350000    47.30000000
   52.27690000    14.47060000    50.30000000
   52.28450000    14.49780000    54.10000000
   52.29210000    14.52490000    55.00000000
   52.29970000    14.55250000    39.30000000
   52.30340000    14.56670000    30.50000000
   52.30720000    14.58080000    15.70000000
   52.31470000    14.60920000    -3.00000000
   52.32230000    14.63750000   -21.50000000
   52.32980000    14.66580000   -40.10000000
   52.33760000    14.69330000   -41.60000000
   52.43880000    14.64520000    -9.40000000
   52.43920000    14.61820000    -7.30000000
   52.43950000    14.59110000     2.10000000
   52.42800000    14.56370000   -20.80000000
   51.92090000    14.32390000   -92.00000000
   51.91300000    14.33410000   -82.30000000
   51.90510000    14.34440000   -70.10000000
   51.89730000    14.35490000   -59.30000000
   51.87410000    14.38630000   -10.80000000
   51.84320000    14.42830000    33.50000000
   51.82770000    14.44920000    43.80000000
   51.81220000    14.47020000    43.80000000
   51.79680000    14.49120000    34.80000000
   51.78130000    14.51220000    27.80000000
   51.76580000    14.53320000    22.80000000
   51.75030000    14.55410000    19.80000000
   51.73490000    14.57510000    17.80000000
   51.71940000    14.59610000    17.90000000
   51.70390000    14.61710000    20.10000000
   51.68850000    14.63800000    19.10000000
   51.67300000    14.65900000    21.30000000
   51.65750000    14.68000000    24.50000000
   51.64200000    14.70100000    25.60000000
   51.62650000    14.72200000    29.80000000
   51.61100000    14.74290000    35.00000000
   51.59550000    14.76390000    37.10000000
   51.58000000    14.78490000    43.30000000
   51.56460000    14.80590000    47.50000000
   51.54910000    14.82680000    53.80000000
   51.51900000    14.75140000    43.30000000
   51.50900000    14.72620000    44.50000000
   51.49900000    14.70110000    40.50000000
   51.48900000    14.67590000    37.50000000
   51.47900000    14.65080000    36.50000000
   51.46900000    14.62560000    33.50000000
   51.45900000    14.60050000    30.60000000
   51.44890000    14.57530000    26.60000000
   51.43890000    14.55020000    22.60000000
   51.42890000    14.52500000    20.60000000
   51.41890000    14.49990000    20.80000000
   51.40890000    14.47470000    18.80000000
   51.39890000    14.44950000    16.80000000
   51.38890000    14.42440000    16.80000000
   51.37880000    14.39920000    15.90000000
   51.36880000    14.37410000    16.00000000
   51.35870000    14.34870000    16.80000000
   51.34870000    14.32340000    15.90000000
   51.33860000    14.29810000    15.90000000
   51.32850000    14.27270000    16.00000000
   51.31840000    14.24740000    15.10000000
   51.30830000    14.22200000    15.20000000
   51.29820000    14.19670000    13.20000000
   51.28810000    14.17130000    13.30000000
   51.27810000    14.14600000    11.30000000
   51.26800000    14.12060000    11.40000000
   51.25790000    14.09530000    11.40000000
   51.24780000    14.06990000     9.40000000
   51.23770000    14.04460000     6.40000000
   51.22760000    14.01920000     4.40000000
   51.21760000    13.99390000     1.30000000
   51.20750000    13.96860000     0.50000000
   51.19740000    13.94320000    -0.70000000
   51.18740000    13.91810000     1.00000000
   51.17760000    13.89360000     2.10000000
   51.16780000    13.86910000     3.30000000
   51.15800000    13.84450000     3.30000000
   51.14820000    13.82000000     5.30000000
   51.13840000    13.79550000     6.30000000
   51.12860000    13.77090000     7.30000000
   51.11880000    13.74640000     8.40000000
   51.10900000    13.72190000     9.40000000
   51.09920000    13.69730000    12.40000000
   51.08940000    13.67280000    14.40000000
   51.07960000    13.64820000    15.40000000
   51.05410000    13.60380000    13.90000000
   51.04100000    13.58190000    16.80000000
   51.02790000    13.55990000    16.80000000
   51.01480000    13.53800000    18.60000000
   51.00170000    13.51600000    29.80000000
   50.98860000    13.49410000    31.60000000
   50.97560000    13.47250000    20.60000000
   50.96270000    13.45080000    12.40000000
   50.94980000    13.42920000    10.20000000
   50.93680000    13.40750000    13.10000000
   50.92390000    13.38590000    13.90000000
   50.91100000    13.36430000    12.80000000
   50.89800000    13.34260000    -3.80000000
   50.89160000    13.33180000   -11.40000000
   50.88510000    13.32100000   -23.30000000
   50.87220000    13.29930000   -32.60000000
   50.85920000    13.27770000   -30.80000000
   50.84630000    13.25600000   -20.60000000
   50.83340000    13.23440000     0.70000000
   50.82690000    13.22360000    13.40000000
   50.82040000    13.21280000    28.00000000
   50.81400000    13.20190000    42.80000000
   50.80750000    13.19110000    51.30000000
   50.79460000    13.16950000    57.30000000
   50.78160000    13.14780000    50.00000000
   50.76870000    13.12620000    47.80000000
   50.75570000    13.10460000    47.60000000
   50.74260000    13.08240000    50.00000000
   50.73600000    13.07140000    57.50000000
   50.72950000    13.06030000    67.20000000
   50.71630000    13.03820000    74.20000000
   50.70320000    13.01600000    65.90000000
   50.69000000    12.99390000    63.60000000
   50.67690000    12.97180000    60.50000000
   50.66370000    12.94960000    57.30000000
   50.65060000    12.92750000    58.00000000
   50.63740000    12.90540000    52.80000000
   50.62430000    12.88320000    46.50000000
   50.61120000    12.86110000    37.30000000
   50.59800000    12.83900000    27.90000000
   50.58490000    12.81680000    20.60000000
   50.57170000    12.79470000    19.40000000
   50.55860000    12.77260000    20.30000000
   50.54540000    12.75040000    21.10000000
   50.53230000    12.72830000    23.00000000
   50.51910000    12.70620000    24.80000000
   50.50590000    12.68380000    25.40000000
   50.49270000    12.66150000    21.30000000
   50.47940000    12.63910000    16.90000000
   50.46620000    12.61670000    13.80000000
   50.45300000    12.59440000    13.60000000
   50.43970000    12.57200000    14.40000000
   50.42650000    12.54960000    13.30000000
   50.41360000    12.52470000    11.20000000
   50.40070000    12.49920000     7.00000000
   50.38970000    12.47310000     8.90000000
   50.37920000    12.44680000    10.90000000
   50.36890000    12.42030000    12.80000000
   50.31350000    12.32750000    14.80000000
   50.30400000    12.30110000    16.80000000
   50.29430000    12.27460000    16.80000000
   50.28440000    12.24790000    18.80000000
   50.27450000    12.22110000    21.80000000
   50.26460000    12.19440000    22.80000000
   50.25470000    12.16760000    20.80000000
   50.24480000    12.14090000    18.80000000
   50.23460000    12.11410000    16.40000000
   50.22420000    12.08740000    14.40000000
   50.21440000    12.06130000    14.90000000
   50.20460000    12.03530000    13.90000000
   50.19490000    12.00940000    13.80000000
   50.18510000    11.98350000    10.70000000
   50.17540000    11.95760000     8.60000000
   50.15730000    11.93640000     3.00000000
   50.13920000    11.91510000     5.90000000
   50.12120000    11.89390000     9.80000000
   50.10310000    11.87260000    16.50000000
   50.08510000    11.85140000    19.30000000
   50.06700000    11.83020000    14.10000000
   50.00510000    11.82020000    15.40000000
   49.98190000    11.83480000    15.90000000
   49.95860000    11.84940000    16.30000000
   49.93540000    11.86410000    11.80000000
   49.91220000    11.87870000     2.00000000
   49.88900000    11.89330000    -1.60000000
   49.86580000    11.90790000    -3.30000000
   49.84250000    11.92250000    -2.80000000
   49.81930000    11.93710000    -3.30000000
   49.79610000    11.95170000    -5.90000000
   49.77290000    11.96630000    -6.40000000
   49.74960000    11.98090000    -7.00000000
   49.72560000    11.99650000   -12.10000000
   49.70140000    12.01230000   -14.70000000
   49.67720000    12.02820000   -18.30000000
   49.65300000    12.04400000   -19.80000000
   49.62870000    12.05990000   -17.60000000
   49.60440000    12.07580000   -16.10000000
   49.58010000    12.09170000   -12.70000000
   49.55570000    12.10760000    -7.20000000
   49.53140000    12.12350000    -2.60000000
   49.50710000    12.13940000     1.90000000
   49.48280000    12.15530000     4.50000000
   49.45810000    12.17090000     6.00000000
   49.43340000    12.18650000     7.40000000
   49.40860000    12.20200000     8.90000000
   49.38390000    12.21760000     8.30000000
   49.35910000    12.23310000     8.70000000
   49.33440000    12.24870000     8.20000000
   49.30970000    12.26430000     7.60000000
   49.28490000    12.27980000     7.00000000
   49.26020000    12.29540000     5.40000000
   49.23550000    12.31090000     2.80000000
   49.21070000    12.32650000     0.10000000
   49.18600000    12.34200000    -2.50000000
   49.16120000    12.35760000    -5.20000000
   49.13650000    12.37320000    -5.80000000
   49.11180000    12.38870000     0.90000000
   49.08700000    12.40430000    13.60000000
   49.06230000    12.41980000    20.00000000
   49.03750000    12.43540000     9.40000000
   49.02510000    12.44320000    -2.30000000
   49.01280000    12.45090000   -13.90000000
   48.98800000    12.46650000   -22.50000000
   48.96330000    12.48210000   -14.90000000
   48.93860000    12.49810000    -3.00000000
   48.91400000    12.51420000     9.70000000
   48.88930000    12.53030000    23.30000000
   48.86470000    12.54650000    38.00000000
   48.84000000    12.56260000    48.60000000
   48.81540000    12.57870000    52.00000000
   48.79100000    12.59510000    58.00000000
   48.76690000    12.61180000    60.30000000
   48.74260000    12.62860000    49.00000000
   48.73040000    12.63700000    34.30000000
   48.71820000    12.64540000    18.80000000
   48.70600000    12.65370000     8.30000000
   48.69390000    12.66210000    -4.50000000
   48.68190000    12.67010000   -10.90000000
   48.67010000    12.67770000   -19.40000000
   48.64650000    12.69290000   -25.10000000
   48.62290000    12.70810000   -34.80000000
   48.59920000    12.72330000   -46.60000000
   48.69550000    12.65830000   -20.80000000
   48.70650000    12.65090000   -12.40000000
   48.71750000    12.64350000    -4.90000000
   48.72850000    12.63610000    -1.50000000
   48.73940000    12.62870000    23.30000000
   48.75040000    12.62130000    35.80000000
   48.76140000    12.61390000    50.30000000
   48.77240000    12.60650000    55.80000000
   48.78340000    12.59910000    55.00000000
   48.80540000    12.58430000    51.50000000
   48.82740000    12.56950000    49.00000000
   48.84940000    12.55470000    46.50000000
   48.87130000    12.53990000    38.00000000
   48.89330000    12.52510000    26.30000000
   48.91530000    12.51030000    11.60000000
   48.93730000    12.49550000    -1.30000000
   48.95930000    12.48070000   -10.90000000
   48.98130000    12.46590000   -21.40000000
   49.00330000    12.45110000   -20.80000000
   49.02530000    12.43620000    -9.10000000
   48.95050000    12.43990000   -13.60000000
   48.92680000    12.45810000    -5.10000000
   48.90320000    12.47630000     6.60000000
   48.87950000    12.49450000    20.10000000
   48.85590000    12.51270000    31.60000000
   48.83220000    12.53090000    41.10000000
   48.78490000    12.56730000    52.00000000
   48.76130000    12.58560000    50.30000000
   48.73760000    12.60380000    39.50000000
   48.72580000    12.61290000    27.80000000
   48.71400000    12.62200000    18.30000000
   48.69030000    12.64020000    12.60000000
   48.66670000    12.65840000    -6.70000000
   48.64300000    12.67660000    -8.40000000
   48.61940000    12.69480000   -11.10000000
   48.59570000    12.71300000   -20.90000000
   48.57210000    12.73120000   -37.00000000
   48.54840000    12.74940000   -46.80000000
   48.52470000    12.76760000   -45.50000000
   48.50920000    12.88640000   -18.10000000
   48.50190000    12.91440000   -11.10000000
   48.49470000    12.94250000    -0.90000000
   48.48740000    12.97050000     2.10000000
   48.48380000    12.98450000    20.90000000
   48.48010000    12.99850000    29.50000000
   48.47650000    13.01250000    35.10000000
   48.47290000    13.02660000    39.60000000
   48.46560000    13.05460000    45.80000000
   48.45840000    13.08260000    42.50000000
   48.45110000    13.11070000    34.30000000
   48.44380000    13.13870000    25.00000000
   48.43660000    13.16670000    12.80000000
   48.42930000    13.19470000     0.40000000
   48.42200000    13.22280000    -8.00000000
   48.41480000    13.25080000   -13.20000000
   48.40750000    13.27880000   -14.30000000
   48.40030000    13.30690000    -8.00000000
   48.39550000    13.34520000    -0.60000000
   48.39460000    13.36890000    -2.50000000
   48.39380000    13.39760000    -8.80000000
   48.39290000    13.42630000    -9.90000000
   48.39210000    13.45510000   -12.20000000
   48.39120000    13.48380000   -15.40000000
   48.39040000    13.51250000   -15.40000000
   48.38950000    13.54130000   -19.80000000
   48.38870000    13.57000000   -22.90000000
   48.38780000    13.59880000   -24.00000000
   48.38700000    13.62760000   -25.10000000
   48.31420000    13.53730000   -25.30000000
   48.29750000    13.51610000   -23.40000000
   48.28080000    13.49500000   -23.50000000
   48.26490000    13.47260000   -19.80000000
   48.24890000    13.45010000   -16.80000000
   48.20460000    13.41640000   -13.80000000
   48.18850000    13.39380000    -8.80000000
   48.17160000    13.37200000    -9.70000000
   48.15450000    13.35040000    -7.80000000
   48.13730000    13.32880000    -5.90000000
   48.12020000    13.30720000    -4.10000000
   48.10300000    13.28550000    -3.10000000
   48.08590000    13.26390000    -3.30000000
   48.06870000    13.24230000    -5.50000000
   48.05160000    13.22070000    -7.70000000
   48.03440000    13.19910000    -8.90000000
   48.01730000    13.17740000    -8.90000000
   48.00010000    13.15580000   -10.20000000
   47.98300000    13.13420000    -9.40000000
   47.96580000    13.11260000    -7.50000000
   47.94870000    13.09100000    -6.60000000
   47.93150000    13.06930000    -5.80000000
   47.91440000    13.04770000    -4.90000000
   47.89720000    13.02610000    -4.10000000
   47.88010000    13.00450000    -2.10000000
   47.86290000    12.98270000    -3.50000000
   47.84570000    12.96100000    -5.80000000
   47.82850000    12.93930000    -8.90000000
   47.81130000    12.91760000   -11.20000000
   47.79410000    12.89580000   -12.40000000
   47.77780000    12.87390000   -11.70000000
   47.76180000    12.85190000   -11.90000000
   47.74570000    12.83000000   -12.90000000
   47.72970000    12.80800000   -13.20000000
   47.71510000    12.78560000   -12.40000000
   47.70060000    12.76330000   -13.70000000
   47.68610000    12.74090000   -11.80000000
   47.67160000    12.71860000    -9.90000000
   47.65700000    12.69620000    -8.10000000
   47.64250000    12.67390000    -8.20000000
   47.62800000    12.65150000   -10.40000000
   47.61250000    12.62930000   -15.20000000
   47.59700000    12.60700000   -20.30000000
   47.52810000    12.53770000   -19.50000000
   47.51310000    12.51530000   -20.60000000
   47.49810000    12.49290000   -24.90000000
   47.48310000    12.47060000   -30.30000000
   47.46810000    12.44820000   -32.50000000
   47.45310000    12.42580000   -32.50000000
   47.43820000    12.40350000   -31.80000000
   47.42300000    12.37980000   -28.30000000
   47.40790000    12.35580000   -22.30000000
   47.39270000    12.33180000   -12.30000000
   47.37750000    12.30770000    -8.30000000
   47.36230000    12.28370000    -0.30000000
   47.34720000    12.25970000    16.00000000
   47.33200000    12.23570000    26.10000000
   47.31680000    12.21170000    14.80000000
   47.30300000    12.18800000     8.90000000
   47.28930000    12.16440000     6.90000000
   47.27550000    12.14080000     7.70000000
   47.26160000    12.11700000     8.30000000
   47.24770000    12.09310000    11.20000000
   47.23380000    12.06930000    15.20000000
   47.21990000    12.04550000    15.90000000
   47.19990000    12.00800000     4.90000000
   47.18790000    11.98730000     4.60000000
   47.17590000    11.96660000     2.30000000
   47.16390000    11.94600000     2.00000000
   47.15190000    11.92530000     0.80000000
   47.13990000    11.90470000    -1.60000000
   47.12780000    11.88400000    -1.90000000
   47.11580000    11.86330000    -2.30000000
   47.10530000    11.84290000     0.50000000
   47.09480000    11.82250000    -3.00000000
   47.08430000    11.80220000    -5.40000000
   47.07380000    11.78180000    -8.70000000
   47.06330000    11.76140000   -12.10000000
   47.05280000    11.74100000   -12.40000000
   47.04230000    11.72060000   -13.70000000
   47.03180000    11.70020000   -15.90000000
   47.02130000    11.67980000   -17.30000000
   47.01080000    11.65940000   -17.50000000
   47.00030000    11.63920000   -16.90000000
   46.98980000    11.61930000   -16.10000000
   46.97930000    11.59940000   -15.40000000
   46.96870000    11.57950000   -13.80000000
   46.95820000    11.55960000   -14.10000000
   46.94770000    11.53970000   -13.40000000
   46.93720000    11.51980000   -12.70000000
   46.92670000    11.49990000   -10.90000000
   46.91620000    11.48000000    -9.30000000
   46.90570000    11.46010000    -7.60000000
   46.89510000    11.44020000    -5.90000000
   46.88460000    11.42030000    -6.20000000
   46.87360000    11.40030000    -9.90000000
   46.86180000    11.38020000   -10.20000000
   46.85000000    11.36010000    -9.40000000
   46.83820000    11.34010000    -5.70000000
   46.82640000    11.32000000    -0.90000000
   46.81460000    11.29990000    -0.30000000
   46.80170000    11.28050000    -3.80000000
   46.78790000    11.26140000    -1.10000000
   46.77410000    11.24230000     1.60000000
   46.76020000    11.22310000     3.30000000
   46.74640000    11.20400000     6.10000000
   46.73310000    11.18280000     8.30000000
   46.71980000    11.16120000     7.00000000
   46.70660000    11.13950000     5.70000000
   46.69330000    11.11790000     4.40000000
   46.68000000    11.09620000     4.10000000
   46.66680000    11.07460000     5.80000000
   46.65350000    11.05290000     9.60000000
   46.64030000    11.03130000     9.30000000
   46.62700000    11.00960000     6.00000000
   46.61380000    10.98800000     4.70000000
   46.58250000    11.05310000     6.10000000
   46.57210000    11.07530000     6.30000000
   46.56180000    11.09750000     5.60000000
   46.55150000    11.11970000     4.80000000
   46.54120000    11.14190000     4.10000000
   46.53080000    11.16420000     2.30000000
   46.52050000    11.18640000    -0.70000000
   46.51020000    11.20860000    -3.50000000
   46.49990000    11.23080000    -8.40000000
   46.48980000    11.25250000    -9.60000000
   46.48000000    11.27330000   -13.40000000
   46.47030000    11.29420000   -15.10000000
   46.46060000    11.31500000   -15.80000000
   46.45040000    11.33680000   -17.60000000
   46.44020000    11.35860000   -17.40000000
   46.43000000    11.38050000   -18.10000000
   46.41980000    11.40230000   -18.90000000
   46.40960000    11.42410000   -19.80000000
   46.39940000    11.44590000   -20.40000000
   46.38920000    11.46780000   -20.30000000
   46.37900000    11.48960000   -18.90000000
   46.36880000    11.51140000   -15.70000000
   46.35860000    11.53330000   -12.40000000
   46.34840000    11.55510000    -9.10000000
   46.33820000    11.57690000    -6.80000000
   46.32800000    11.59870000    -4.50000000
   46.31780000    11.62060000     1.00000000
   46.30760000    11.64240000     3.30000000
   46.29740000    11.66420000     5.60000000
   46.28720000    11.68610000     8.90000000
   46.27700000    11.70790000     4.10000000
   46.26700000    11.72920000    -4.40000000
   46.25710000    11.75050000    -9.20000000
   46.24710000    11.77180000    -8.90000000
   46.23710000    11.79310000    -8.70000000
   46.22670000    11.81410000   -11.40000000
   46.21560000    11.83470000    -7.00000000
   46.20450000    11.85530000    -0.60000000
   46.19340000    11.87590000     0.80000000
   46.18230000    11.89650000     5.20000000
   46.17120000    11.91710000    11.60000000
   46.16010000    11.93780000    16.90000000
   46.14900000    11.95840000    16.10000000
   46.13790000    11.97900000    15.40000000
   46.12670000    11.99960000    16.60000000
   46.11560000    12.02020000    17.90000000
   46.10410000    12.04050000     6.70000000
   46.09200000    12.06110000    -9.40000000
   46.08000000    12.08180000   -19.40000000
   46.06790000    12.10240000   -24.30000000
   46.05590000    12.12300000   -28.00000000
   46.04380000    12.14360000   -23.80000000
   46.03170000    12.16420000    -9.20000000
   46.01970000    12.18480000     2.30000000
   46.00760000    12.20540000     5.70000000
   45.99560000    12.22600000     8.00000000
   45.98350000    12.24670000    10.30000000
   45.97140000    12.26730000    11.60000000
   45.95940000    12.28790000    10.80000000
   45.94730000    12.30850000     6.00000000
   45.93530000    12.32910000     2.00000000
   45.92320000    12.34970000     1.30000000
   45.91110000    12.37030000     0.60000000
   45.89910000    12.39090000    -0.40000000
   45.88710000    12.41190000     1.80000000
   45.87570000    12.43330000     2.10000000
   45.85650000    12.47760000     2.30000000
   45.84860000    12.50050000     1.30000000
   45.84070000    12.52340000     0.50000000
   45.83280000    12.54640000    -3.50000000
   45.82500000    12.56930000    -5.50000000
   45.81710000    12.59220000    -7.40000000
   45.80920000    12.61510000    -9.30000000
   45.80130000    12.63800000   -10.20000000
   45.79450000    12.66110000    -5.50000000
   45.78840000    12.68430000    -6.40000000
   45.78220000    12.70750000    -9.30000000
   45.77650000    12.73110000   -10.90000000
   45.77090000    12.75490000   -12.80000000
   45.76530000    12.77860000   -15.80000000
   45.75930000    12.80270000   -19.30000000
   45.75270000    12.82740000   -19.30000000
   45.74610000    12.85210000   -19.30000000
   45.73940000    12.87680000   -19.10000000
   45.73280000    12.90150000   -19.10000000
   45.70490000    12.86720000   -21.30000000
   45.69090000    12.85000000   -21.60000000
   45.67690000    12.83280000   -21.00000000
   45.66300000    12.81570000   -20.30000000
   45.64900000    12.79850000   -20.60000000
   45.63500000    12.78130000   -20.00000000
   45.62110000    12.76410000   -19.30000000
   45.60710000    12.74700000   -18.60000000
   45.59310000    12.72980000   -18.00000000
   45.57920000    12.71260000   -17.30000000
   45.56520000    12.69540000   -17.80000000
   45.55120000    12.67820000   -18.00000000
   45.53730000    12.66110000   -17.40000000
   45.52330000    12.64390000   -15.80000000
   45.50930000    12.62670000   -14.10000000
   45.49540000    12.60950000   -12.40000000
   45.48210000    12.59340000    -9.90000000
   45.46890000    12.57720000   -11.40000000
   45.45570000    12.56100000   -10.80000000
   45.44250000    12.54490000   -10.20000000
   45.42920000    12.52870000   -10.60000000
   45.41600000    12.51250000    -9.90000000
   45.40280000    12.49640000    -9.30000000
   45.38960000    12.48020000    -7.70000000
   45.37630000    12.46400000    -5.10000000
   45.36310000    12.44790000    -3.30000000
   45.34990000    12.43170000    -2.80000000
   45.33670000    12.41550000    -3.10000000
   45.32340000    12.39940000    -3.50000000
   45.30940000    12.38220000   -10.40000000
   45.29400000    12.36370000    -9.80000000
   45.27870000    12.34510000    -9.10000000
   45.26340000    12.32650000   -11.40000000
   45.24810000    12.30800000   -12.80000000
   45.23270000    12.28940000   -13.10000000
   45.21740000    12.27080000   -12.40000000
   45.20210000    12.25220000    -9.70000000
