   76.03230000     2.02890000   -36.60000000
   76.02260000     2.00650000   -36.50000000
   76.01290000     1.98420000   -49.30000000
   76.00320000     1.96230000   -59.80000000
   75.99360000     1.94200000   -65.70000000
   75.98390000     1.92180000   -66.60000000
   75.97440000     1.90170000   -67.20000000
   75.96480000     1.88170000   -66.10000000
   75.95530000     1.86160000   -66.00000000
   75.94570000     1.84150000   -63.80000000
   75.93620000     1.82140000   -62.80000000
   75.92660000     1.80130000   -61.60000000
   75.91700000     1.78130000   -59.50000000
   75.90750000     1.76120000   -59.50000000
   75.89810000     1.74170000   -57.50000000
   75.88880000     1.72260000   -56.50000000
   75.87960000     1.70360000   -55.30000000
   75.87030000     1.68450000   -53.30000000
   75.86110000     1.66540000   -52.30000000
   75.85200000     1.64620000   -48.50000000
   75.84380000     1.62650000   -48.30000000
   75.83550000     1.60680000   -49.10000000
   75.82730000     1.58710000   -50.00000000
   75.81900000     1.56740000   -51.00000000
   75.81070000     1.54760000   -50.10000000
   75.80230000     1.52770000   -50.00000000
   75.79400000     1.50790000   -48.00000000
   75.78570000     1.48800000   -45.80000000
   75.77730000     1.46810000   -45.80000000
   75.76900000     1.44830000   -45.80000000
   75.76010000     1.42830000   -49.00000000
   75.75090000     1.40810000   -50.00000000
   75.74160000     1.38800000   -52.80000000
   75.73230000     1.36790000   -51.80000000
   75.72310000     1.34780000   -53.60000000
   75.71380000     1.32770000   -54.50000000
   75.70460000     1.30750000   -54.50000000
   75.69530000     1.28740000   -55.50000000
   75.68610000     1.26730000   -56.30000000
   75.67680000     1.24720000   -56.30000000
   75.66760000     1.22710000   -55.10000000
   75.65830000     1.20690000   -54.10000000
   75.64960000     1.18730000   -50.50000000
   75.64090000     1.16780000   -50.30000000
   75.63240000     1.14750000   -50.60000000
   75.62400000     1.12710000   -51.50000000
   75.61560000     1.10660000   -50.50000000
   75.60720000     1.08620000   -51.50000000
   75.59880000     1.06580000   -52.30000000
   75.59040000     1.04530000   -53.30000000
   75.58200000     1.02490000   -51.10000000
   75.57350000     1.00450000   -52.10000000
   75.56510000     0.98400000   -53.00000000
   75.55670000     0.96360000   -56.00000000
   75.54810000     0.94470000   -58.10000000
   75.53920000     0.92810000   -57.10000000
   75.53030000     0.91140000   -57.00000000
   75.52140000     0.89480000   -57.00000000
   75.51250000     0.87820000   -58.00000000
   75.50360000     0.86160000   -59.00000000
   75.49460000     0.84470000   -60.10000000
   75.48560000     0.82790000   -60.10000000
   75.47660000     0.81110000   -60.00000000
   75.46760000     0.79420000   -61.00000000
   75.45860000     0.77740000   -60.00000000
   75.44960000     0.76060000   -59.00000000
   75.44060000     0.74370000   -59.00000000
   75.43160000     0.72690000   -58.00000000
   75.42260000     0.71010000   -58.80000000
   75.41360000     0.69320000   -61.80000000
   75.40460000     0.67640000   -61.80000000
   75.39560000     0.65960000   -61.80000000
   75.38420000     0.64400000   -61.10000000
   75.37230000     0.62460000   -62.60000000
   75.36000000     0.60260000   -63.50000000
   75.34770000     0.58060000   -65.50000000
   75.33540000     0.55860000   -67.50000000
   75.32310000     0.53660000   -67.50000000
   75.31080000     0.51450000   -69.40000000
   75.29850000     0.49250000   -70.40000000
   75.28620000     0.47050000   -70.30000000
   75.27400000     0.44850000   -69.30000000
   75.26170000     0.42650000   -70.30000000
   75.24940000     0.40450000   -70.20000000
   75.23710000     0.38250000   -74.20000000
   75.22480000     0.36040000   -75.10000000
   75.21250000     0.33840000   -77.10000000
   75.20020000     0.31640000   -78.00000000
   75.06370000     0.23730000   -80.00000000
   75.04130000     0.23030000   -78.00000000
   75.01900000     0.22320000   -79.00000000
   74.99660000     0.21620000   -84.90000000
   74.97420000     0.20920000   -86.90000000
   74.95180000     0.20220000   -89.80000000
   74.92800000     0.19940000   -95.60000000
   74.90420000     0.19640000   -98.70000000
   74.87990000     0.19240000   -99.70000000
   74.85570000     0.18850000  -100.70000000
   74.83150000     0.18460000  -101.70000000
   74.80730000     0.18060000   -98.70000000
   74.78310000     0.17670000   -93.80000000
   74.75890000     0.17280000   -88.80000000
   74.73460000     0.16880000   -78.00000000
   74.71040000     0.16490000   -68.10000000
   74.68620000     0.16100000   -58.10000000
   74.66200000     0.15710000   -47.60000000
   74.63800000     0.15340000   -37.80000000
   74.61400000     0.14980000   -32.80000000
   74.59000000     0.14610000   -30.80000000
   74.56600000     0.14250000   -27.90000000
   74.54190000     0.13880000   -26.90000000
   74.51790000     0.13510000   -26.90000000
   74.49390000     0.13150000   -27.90000000
   74.46990000     0.12780000   -28.80000000
   74.44590000     0.12420000   -28.80000000
   74.42190000     0.12050000   -27.90000000
   74.39780000     0.11680000   -27.90000000
   74.37350000     0.11310000   -28.80000000
   74.34920000     0.10950000   -28.80000000
   74.32480000     0.10580000   -27.80000000
   74.22380000     0.09030000   -26.50000000
   74.20360000     0.08710000   -28.50000000
   74.18340000     0.08400000   -32.50000000
   74.16320000     0.08090000   -33.50000000
   74.03060000     0.06310000   -41.00000000
   74.00830000     0.06030000   -41.00000000
   73.98510000     0.05640000   -44.50000000
   73.96190000     0.05240000   -44.50000000
   73.93870000     0.04850000   -44.50000000
   73.91540000     0.04450000   -44.50000000
   73.89220000     0.04060000   -44.50000000
   73.86900000     0.03660000   -44.50000000
   73.84530000     0.03200000   -48.00000000
   73.82150000     0.02730000   -48.00000000
   73.79770000     0.02260000   -47.00000000
   73.77390000     0.01790000   -48.00000000
   73.75020000     0.01310000   -51.00000000
   73.72640000     0.00840000   -53.00000000
   73.70260000     0.00370000   -54.00000000
   73.67880000    -0.00110000   -56.00000000
   73.65500000    -0.00580000   -57.00000000
   73.63080000    -0.01060000   -60.00000000
   73.60640000    -0.01400000   -63.00000000
   73.58190000    -0.01640000   -64.00000000
   73.55730000    -0.01880000   -65.00000000
   73.53280000    -0.02120000   -65.00000000
   73.50820000    -0.02370000   -64.00000000
   73.48360000    -0.02610000   -63.00000000
   73.45910000    -0.02850000   -58.00000000
   73.43450000    -0.03090000   -50.10000000
   73.40990000    -0.03330000   -46.10000000
   73.38540000    -0.03580000   -44.30000000
   73.36080000    -0.03820000   -48.10000000
   73.33650000    -0.04160000   -53.00000000
   73.31230000    -0.04550000   -55.00000000
   73.28730000    -0.04940000   -54.80000000
   73.26210000    -0.05320000   -47.00000000
   73.23690000    -0.05710000   -41.00000000
   73.21170000    -0.06090000   -42.00000000
   73.18750000    -0.06460000   -40.30000000
   73.16340000    -0.06820000   -38.30000000
   73.13920000    -0.07190000   -33.30000000
   73.11500000    -0.07560000   -27.40000000
   73.06540000    -0.07810000   -21.00000000
   73.03990000    -0.07780000   -23.90000000
   73.01440000    -0.07750000   -38.80000000
   72.98900000    -0.07720000   -50.60000000
   72.96350000    -0.07690000   -58.50000000
   72.93800000    -0.07670000   -61.50000000
   72.81060000    -0.07520000   -70.50000000
   72.78510000    -0.07490000   -72.50000000
   72.75960000    -0.07460000   -76.40000000
   72.73410000    -0.07430000   -79.40000000
   72.70860000    -0.07400000   -79.40000000
   72.68310000    -0.07370000   -79.40000000
   72.65770000    -0.07350000   -75.50000000
   72.63220000    -0.07320000   -74.50000000
   72.60670000    -0.07290000   -71.50000000
   72.58110000    -0.07260000   -70.80000000
   72.55550000    -0.07230000   -68.80000000
   72.52990000    -0.07200000   -67.90000000
   72.50430000    -0.07170000   -68.80000000
   72.47870000    -0.07140000   -70.80000000
   72.45310000    -0.07110000   -73.80000000
   72.42750000    -0.07080000   -77.70000000
   72.40190000    -0.07060000   -77.70000000
   72.37630000    -0.07030000   -75.80000000
   72.35070000    -0.07000000   -71.80000000
   72.32510000    -0.06970000   -68.80000000
   72.29950000    -0.06940000   -66.90000000
   72.27370000    -0.06900000   -66.30000000
   72.24800000    -0.06870000   -69.30000000
   72.22220000    -0.06830000   -75.20000000
   72.19650000    -0.06790000   -78.20000000
   72.17070000    -0.06760000   -81.10000000
   72.14500000    -0.06720000   -81.10000000
   72.11920000    -0.06680000   -81.10000000
   72.09340000    -0.06640000   -78.20000000
   72.06770000    -0.06610000   -76.20000000
   72.04190000    -0.06570000   -76.20000000
   72.01620000    -0.06530000   -76.20000000
   71.99040000    -0.06510000   -76.30000000
   71.96460000    -0.06480000   -76.30000000
   71.93870000    -0.06460000   -76.30000000
   71.91290000    -0.06440000   -76.30000000
   71.88710000    -0.06410000   -78.30000000
   71.86130000    -0.06390000   -77.30000000
   71.83580000    -0.06360000   -73.50000000
   71.81040000    -0.06330000   -73.20000000
   71.78500000    -0.06300000   -70.30000000
   71.75960000    -0.06260000   -66.30000000
   71.73420000    -0.06230000   -65.30000000
   71.70880000    -0.06200000   -61.30000000
   71.68340000    -0.06170000   -60.30000000
   71.65800000    -0.06140000   -57.30000000
   71.63260000    -0.06110000   -54.30000000
   71.60720000    -0.06080000   -52.50000000
   71.58180000    -0.06050000   -49.50000000
   71.55640000    -0.06020000   -52.50000000
   71.53100000    -0.05980000   -50.50000000
   71.50560000    -0.05950000   -46.50000000
   71.48020000    -0.05920000   -45.50000000
   71.45480000    -0.05890000   -42.50000000
   71.42940000    -0.05860000   -45.50000000
   71.40410000    -0.05830000   -50.50000000
   71.37870000    -0.05800000   -56.30000000
   71.35380000    -0.05770000   -59.80000000
   71.32900000    -0.05740000   -63.80000000
   71.30410000    -0.05700000   -66.80000000
   71.27930000    -0.05670000   -66.80000000
   71.25380000    -0.05680000   -69.10000000
   71.22810000    -0.05690000   -71.10000000
   71.20240000    -0.05710000   -66.10000000
   71.17670000    -0.05720000   -66.10000000
   71.15100000    -0.05740000   -63.10000000
   71.12530000    -0.05750000   -63.10000000
   71.09960000    -0.05770000   -64.20000000
   71.07390000    -0.05780000   -64.20000000
   71.04820000    -0.05800000   -63.10000000
   71.02270000    -0.05840000   -60.60000000
   70.99710000    -0.05880000   -58.60000000
   70.97160000    -0.05920000   -55.80000000
   70.94610000    -0.05960000   -50.80000000
   70.92060000    -0.06000000   -45.80000000
   70.89520000    -0.06040000   -40.60000000
   70.86970000    -0.06080000   -30.80000000
   70.84430000    -0.06120000   -18.80000000
   70.81890000    -0.06160000    -6.10000000
   70.79350000    -0.06200000    -1.00000000
   70.76810000    -0.06240000    -1.00000000
   70.74260000    -0.06280000   -10.90000000
   70.71720000    -0.06320000   -22.80000000
   70.69180000    -0.06360000   -31.80000000
   70.66640000    -0.06390000   -40.60000000
   70.64090000    -0.06430000   -44.50000000
   70.61550000    -0.06470000   -48.50000000
   70.58900000    -0.06510000   -53.50000000
   70.56240000    -0.06550000   -55.50000000
   70.53590000    -0.06590000   -58.50000000
   70.50950000    -0.06610000   -62.30000000
   70.48340000    -0.06600000   -63.30000000
   70.45730000    -0.06580000   -66.30000000
   70.43110000    -0.06570000   -64.30000000
   70.40500000    -0.06550000   -62.30000000
   70.37890000    -0.06540000   -60.30000000
   70.35270000    -0.06520000   -57.30000000
   70.32660000    -0.06510000   -52.50000000
   70.30050000    -0.06490000   -47.50000000
   70.27430000    -0.06480000   -45.50000000
   70.24820000    -0.06470000   -45.50000000
   70.22210000    -0.06450000   -47.50000000
   70.19590000    -0.06440000   -49.50000000
   70.16980000    -0.06420000   -49.50000000
   70.14370000    -0.06410000   -49.50000000
   70.11830000    -0.06390000   -47.50000000
   70.09290000    -0.06380000   -47.50000000
   70.06750000    -0.06360000   -49.50000000
   70.04210000    -0.06350000   -50.50000000
   70.01670000    -0.06340000   -50.50000000
   69.99130000    -0.06320000   -50.50000000
   69.96590000    -0.06310000   -52.50000000
   69.94050000    -0.06290000   -52.50000000
   69.91510000    -0.06280000   -52.50000000
   69.88980000    -0.06260000   -51.50000000
   69.86440000    -0.06250000   -50.50000000
   69.83900000    -0.06230000   -48.50000000
   69.81360000    -0.06220000   -48.50000000
   69.78780000    -0.06220000   -43.80000000
   69.76200000    -0.06220000   -39.80000000
   69.73580000    -0.06250000   -36.80000000
   69.70950000    -0.06290000   -30.90000000
   69.68330000    -0.06330000   -26.90000000
   69.65720000    -0.06360000   -21.50000000
   69.63120000    -0.06400000   -18.50000000
   69.60510000    -0.06440000   -23.50000000
   69.59210000    -0.06450000   -29.40000000
   69.57910000    -0.06470000   -37.30000000
   69.56610000    -0.06490000   -43.30000000
   69.55300000    -0.06510000   -50.30000000
   69.52720000    -0.06610000   -56.50000000
   69.50130000    -0.06720000   -62.50000000
   69.47580000    -0.06750000   -62.80000000
   69.45020000    -0.06780000   -62.80000000
   69.42460000    -0.06820000   -60.80000000
   69.39900000    -0.06850000   -55.80000000
   69.37340000    -0.06880000   -51.00000000
   69.34780000    -0.06920000   -51.00000000
   69.32230000    -0.06950000   -50.00000000
   69.29670000    -0.06980000   -51.00000000
   69.27110000    -0.07020000   -51.00000000
   69.23460000    -0.07080000   -56.10000000
   69.21960000    -0.07120000   -56.10000000
   69.20450000    -0.07150000   -57.10000000
   69.18940000    -0.07180000   -58.10000000
   69.12120000    -0.07280000   -52.80000000
   69.09560000    -0.07320000   -52.80000000
   69.07010000    -0.07350000   -51.80000000
   69.04460000    -0.07380000   -50.80000000
   69.01900000    -0.07420000   -45.80000000
   68.99350000    -0.07450000   -41.00000000
   68.96790000    -0.07480000   -39.00000000
   68.94240000    -0.07520000   -39.00000000
   68.91680000    -0.07550000   -36.00000000
   68.89130000    -0.07580000   -32.00000000
   68.86580000    -0.07620000   -31.00000000
   68.84020000    -0.07650000   -26.10000000
   68.81470000    -0.07680000   -26.10000000
   68.78900000    -0.07720000   -27.40000000
   68.76350000    -0.07800000   -30.90000000
   68.73800000    -0.07890000   -36.00000000
   68.71240000    -0.07980000   -41.80000000
   68.68690000    -0.08070000   -50.80000000
   68.66140000    -0.08160000   -53.80000000
   68.63580000    -0.08250000   -57.00000000
   68.61020000    -0.08330000   -56.00000000
   68.58460000    -0.08420000   -51.00000000
   68.55890000    -0.08510000   -46.00000000
   68.53330000    -0.08600000   -40.10000000
   68.50770000    -0.08690000   -33.30000000
   68.48210000    -0.08770000   -32.30000000
   68.45650000    -0.08860000   -39.10000000
   68.43090000    -0.08950000   -42.10000000
   68.40530000    -0.09040000   -45.00000000
   68.37970000    -0.09130000   -53.00000000
   68.35400000    -0.09210000   -59.00000000
   68.32870000    -0.09320000   -59.30000000
   68.30360000    -0.09440000   -59.30000000
   68.27860000    -0.09560000   -58.30000000
   68.25350000    -0.09680000   -54.50000000
   68.22850000    -0.09800000   -53.50000000
   68.20350000    -0.09920000   -53.50000000
   68.17830000    -0.10050000   -52.60000000
   68.15320000    -0.10170000   -51.80000000
   68.12810000    -0.10290000   -54.60000000
   68.10300000    -0.10410000   -54.60000000
   68.07780000    -0.10530000   -54.60000000
   68.05250000    -0.10620000   -55.30000000
   68.02710000    -0.10710000   -55.30000000
   68.00170000    -0.10800000   -53.30000000
   67.97630000    -0.10890000   -48.50000000
   67.95090000    -0.10980000   -46.50000000
   67.92560000    -0.11070000   -42.50000000
   67.90020000    -0.11160000   -35.50000000
   67.87480000    -0.11250000   -30.60000000
   67.84940000    -0.11340000   -28.60000000
   67.82400000    -0.11430000   -30.60000000
   67.79870000    -0.11510000   -35.50000000
   67.77300000    -0.11570000   -35.60000000
   67.74730000    -0.11600000   -38.60000000
   67.72170000    -0.11630000   -37.00000000
   67.69620000    -0.11670000   -36.00000000
   67.67060000    -0.11700000   -31.00000000
   67.64510000    -0.11730000   -26.10000000
   67.61950000    -0.11760000   -19.30000000
   67.59390000    -0.11790000   -11.40000000
   67.56980000    -0.11730000     1.30000000
   67.54590000    -0.11650000     8.30000000
   67.52210000    -0.11570000    15.20000000
   67.49830000    -0.11480000    19.10000000
   67.37360000    -0.10540000     3.30000000
   67.34900000    -0.10480000    -5.80000000
   67.32440000    -0.10410000   -18.60000000
   67.29980000    -0.10350000   -27.50000000
   67.27520000    -0.10290000   -48.30000000
   67.25060000    -0.10230000   -63.10000000
   67.18940000    -0.10050000   -65.90000000
   67.16560000    -0.09990000   -69.90000000
   67.14180000    -0.09930000   -71.90000000
   67.11800000    -0.09870000   -75.80000000
   67.09420000    -0.09810000   -67.90000000
   67.07040000    -0.09750000   -59.00000000
   67.04660000    -0.09690000   -52.00000000
   67.02280000    -0.09630000   -45.10000000
   66.99900000    -0.09570000   -37.30000000
   66.97520000    -0.09500000   -32.30000000
   66.95140000    -0.09440000   -17.40000000
   66.85520000    -0.09200000     7.60000000
   66.83110000    -0.09140000    -2.50000000
   66.80730000    -0.09190000   -11.20000000
   66.77930000    -0.15870000   -13.40000000
   66.77790000    -0.18060000   -12.60000000
   66.77640000    -0.20240000    -8.60000000
   66.77500000    -0.22430000    -4.70000000
   66.70100000    -0.22700000   -25.50000000
   66.67670000    -0.22660000   -35.50000000
   66.65250000    -0.22610000   -43.30000000
   66.62830000    -0.22560000   -47.30000000
   66.52810000    -0.22270000   -46.50000000
   66.50420000    -0.22220000   -41.50000000
   66.47910000    -0.22160000   -40.10000000
   66.45310000    -0.22080000   -32.30000000
   66.42720000    -0.22010000   -25.30000000
   66.40120000    -0.21940000   -19.30000000
   66.37530000    -0.21860000   -17.40000000
   66.34930000    -0.21790000   -14.40000000
   66.32330000    -0.21720000   -13.40000000
   66.29740000    -0.21640000   -14.40000000
   66.27140000    -0.21570000   -16.40000000
   66.23560000    -0.21420000   -31.30000000
   66.21920000    -0.21350000   -35.30000000
   66.20230000    -0.21310000   -41.10000000
   66.12840000    -0.21210000   -60.60000000
   66.10210000    -0.21170000   -66.60000000
   66.07590000    -0.21140000   -69.60000000
   66.04980000    -0.21110000   -66.60000000
   66.02400000    -0.21080000   -61.50000000
   65.99820000    -0.21050000   -55.60000000
   65.97230000    -0.21030000   -48.80000000
   65.94650000    -0.21000000   -45.80000000
   65.92070000    -0.20970000   -31.80000000
   65.89480000    -0.20940000   -23.90000000
   65.73540000    -0.20760000   -12.20000000
   65.70960000    -0.20730000   -12.20000000
   65.68380000    -0.20700000   -12.20000000
   65.65790000    -0.20680000   -16.00000000
   65.63210000    -0.20650000   -17.00000000
   65.60630000    -0.20620000   -21.00000000
   65.58040000    -0.20590000   -25.90000000
   65.55460000    -0.20570000   -28.90000000
   65.52880000    -0.20540000   -31.80000000
   65.50290000    -0.20510000   -34.80000000
   65.47730000    -0.20490000   -38.30000000
   65.45170000    -0.20460000   -40.30000000
   65.42610000    -0.20430000   -41.30000000
   65.40050000    -0.20410000   -45.10000000
   65.37480000    -0.20380000   -49.10000000
   65.34920000    -0.20350000   -53.00000000
   65.32360000    -0.20320000   -58.00000000
   65.29800000    -0.20300000   -59.00000000
   65.27240000    -0.20270000   -57.00000000
   65.24670000    -0.20240000   -51.00000000
   65.22090000    -0.20200000   -39.30000000
   65.19480000    -0.20140000   -26.50000000
   65.16880000    -0.20080000   -15.70000000
   65.14280000    -0.20020000    -9.70000000
   65.11670000    -0.19960000    -7.80000000
   65.09070000    -0.19900000    -7.80000000
   65.06470000    -0.19840000   -12.70000000
   65.03860000    -0.19780000   -15.70000000
   65.01230000    -0.19670000   -18.10000000
   64.98610000    -0.19550000   -19.10000000
   64.95990000    -0.19430000   -20.10000000
   64.93360000    -0.19310000   -20.10000000
   64.90740000    -0.19190000   -18.10000000
   64.88110000    -0.19070000   -20.10000000
   64.85490000    -0.18950000   -23.00000000
   64.82860000    -0.18830000   -28.00000000
   64.80240000    -0.18720000   -28.00000000
   64.77620000    -0.18600000   -23.00000000
   64.74990000    -0.18480000   -18.10000000
   64.72370000    -0.18350000   -18.10000000
   64.69750000    -0.18230000   -18.10000000
   64.67120000    -0.18110000   -24.00000000
   64.64500000    -0.17990000   -29.90000000
   64.61880000    -0.17860000   -36.00000000
   64.59260000    -0.17740000   -39.80000000
   64.56640000    -0.17620000   -41.50000000
   64.54080000    -0.17520000   -40.10000000
   64.51520000    -0.17420000   -36.10000000
   64.48960000    -0.17310000   -36.10000000
   64.46400000    -0.17210000   -36.10000000
   64.43840000    -0.17100000   -35.10000000
   64.41280000    -0.17000000   -36.10000000
   64.38720000    -0.16890000   -38.10000000
   64.36160000    -0.16790000   -44.00000000
   64.33610000    -0.16680000   -49.00000000
   64.31050000    -0.16580000   -53.00000000
   64.28490000    -0.16470000   -56.00000000
   64.25930000    -0.16370000   -56.00000000
   64.23370000    -0.16270000   -55.00000000
   64.20810000    -0.16160000   -56.00000000
   64.18250000    -0.16060000   -57.00000000
   64.15690000    -0.15950000   -60.00000000
   64.13130000    -0.15850000   -60.80000000
   64.10570000    -0.15740000   -62.80000000
   64.07990000    -0.15640000   -69.30000000
   64.05420000    -0.15530000   -71.30000000
   64.02840000    -0.15430000   -73.20000000
   64.00270000    -0.15330000   -73.20000000
   63.97690000    -0.15220000   -73.20000000
   63.95120000    -0.15120000   -73.20000000
   63.92540000    -0.15010000   -71.30000000
   63.89970000    -0.14910000   -71.20000000
   63.71210000    -0.14010000   -56.30000000
   63.68560000    -0.13940000   -58.30000000
   63.65910000    -0.13860000   -61.30000000
   63.63270000    -0.13790000   -64.30000000
   63.60620000    -0.13710000   -68.30000000
   63.57970000    -0.13640000   -68.30000000
   63.55320000    -0.13560000   -66.30000000
   63.52670000    -0.13490000   -63.30000000
   63.50020000    -0.13410000   -58.30000000
   63.47450000    -0.13360000   -50.50000000
   63.44980000    -0.13340000   -48.50000000
   63.42510000    -0.13330000   -49.50000000
   63.31320000    -0.27620000   -66.90000000
   63.30050000    -0.29640000   -59.00000000
   63.28770000    -0.31660000   -57.00000000
   63.27490000    -0.33680000   -52.00000000
   63.26210000    -0.35710000   -49.10000000
   63.24940000    -0.37730000   -47.10000000
   63.23660000    -0.39750000   -44.30000000
   63.22380000    -0.41770000   -39.30000000
   63.21110000    -0.43800000   -36.30000000
   63.19990000    -0.45650000   -29.90000000
   63.18920000    -0.47460000   -22.00000000
   63.17850000    -0.49280000   -15.20000000
   63.16770000    -0.51090000    -8.30000000
   63.15730000    -0.52860000    -2.50000000
   63.14690000    -0.54620000    -2.50000000
   63.13650000    -0.56380000    -5.60000000
   63.09780000    -0.57540000   -26.30000000
   63.08380000    -0.59600000   -23.30000000
   63.06970000    -0.61660000   -23.30000000
   63.05560000    -0.63710000   -25.30000000
   63.04160000    -0.65770000   -24.40000000
   63.02750000    -0.67830000   -25.40000000
   63.01340000    -0.69880000   -28.40000000
   62.99940000    -0.71940000   -38.50000000
   62.98530000    -0.74000000   -46.30000000
   62.97120000    -0.76060000   -49.30000000
   62.95720000    -0.78110000   -51.50000000
   62.94310000    -0.80170000   -51.50000000
   62.92900000    -0.82230000   -52.50000000
   62.91500000    -0.84280000   -52.50000000
   62.90090000    -0.86340000   -50.60000000
   62.88680000    -0.88400000   -50.60000000
   62.87280000    -0.90450000   -50.80000000
   62.85870000    -0.92510000   -47.80000000
   62.84490000    -0.94520000   -45.10000000
   62.83120000    -0.96530000   -45.10000000
   62.81740000    -0.98540000   -45.30000000
   62.80300000    -1.00650000   -46.00000000
   62.78860000    -1.02760000   -43.10000000
   62.77420000    -1.04880000   -38.30000000
   62.75970000    -1.06990000   -37.30000000
   62.74530000    -1.09100000   -37.50000000
   62.73200000    -1.11090000   -35.50000000
   62.71870000    -1.13080000   -35.50000000
   62.70550000    -1.15070000   -36.50000000
   62.69220000    -1.17060000   -37.60000000
   62.67890000    -1.19050000   -39.80000000
   62.66560000    -1.21040000   -40.80000000
   62.65230000    -1.23030000   -40.80000000
   62.63900000    -1.25020000   -41.00000000
   62.62530000    -1.27050000   -41.60000000
   62.61100000    -1.29150000   -39.80000000
   62.59680000    -1.31240000   -34.80000000
   62.58250000    -1.33330000   -34.00000000
   62.56820000    -1.35430000   -34.00000000
   62.55400000    -1.37520000   -35.10000000
   62.53970000    -1.39610000   -39.10000000
   62.52550000    -1.41700000   -40.30000000
   62.51120000    -1.43800000   -41.30000000
   62.49690000    -1.45890000   -39.50000000
   62.48270000    -1.47980000   -39.50000000
   62.46970000    -1.50040000   -35.30000000
   62.45670000    -1.52100000   -34.30000000
   62.44370000    -1.54150000   -32.50000000
   62.43080000    -1.56210000   -32.50000000
   62.41780000    -1.58270000   -31.60000000
   62.40480000    -1.60330000   -29.80000000
   62.39180000    -1.62380000   -27.80000000
   62.37880000    -1.64440000   -27.00000000
   62.36590000    -1.66500000   -26.10000000
   62.35290000    -1.68550000   -25.30000000
   62.33990000    -1.70610000   -24.30000000
   62.32700000    -1.72630000   -23.30000000
   62.31390000    -1.74680000   -25.80000000
   62.30080000    -1.76730000   -28.90000000
   62.28770000    -1.78780000   -29.00000000
   62.27570000    -1.80780000   -25.30000000
   62.26450000    -1.82750000   -28.30000000
   62.25320000    -1.84720000   -30.40000000
   62.24190000    -1.86690000   -31.50000000
   62.23070000    -1.88660000   -33.60000000
   62.21940000    -1.90630000   -32.80000000
   62.20810000    -1.92600000   -33.80000000
   62.19690000    -1.94570000   -34.00000000
   62.18560000    -1.96540000   -34.00000000
   62.17430000    -1.98510000   -35.30000000
   62.08330000    -2.11640000   -44.80000000
   62.07020000    -2.13650000   -44.00000000
   62.05710000    -2.15650000   -44.10000000
   62.04400000    -2.17660000   -44.30000000
   62.03100000    -2.19660000   -45.50000000
   62.01790000    -2.21660000   -44.50000000
   62.00480000    -2.23670000   -42.80000000
   61.99170000    -2.25670000   -41.80000000
   61.97870000    -2.27670000   -41.00000000
   61.96560000    -2.29680000   -38.10000000
   61.95250000    -2.31680000   -35.30000000
   61.89190000    -2.40880000   -29.00000000
   61.87830000    -2.42890000   -31.60000000
   61.86430000    -2.44900000   -29.80000000
   61.85030000    -2.46910000   -30.00000000
   61.83640000    -2.48920000   -29.10000000
   61.82240000    -2.50930000   -27.30000000
   61.80840000    -2.52950000   -29.50000000
   61.79440000    -2.54960000   -30.60000000
   61.78040000    -2.56970000   -32.80000000
   61.76650000    -2.58980000   -34.00000000
   61.75250000    -2.60990000   -34.10000000
   61.73850000    -2.63000000   -36.30000000
   61.72450000    -2.65010000   -39.30000000
   61.71060000    -2.67020000   -40.50000000
   61.69660000    -2.69040000   -40.80000000
   61.68260000    -2.71050000   -40.80000000
   61.66860000    -2.73060000   -40.00000000
   61.65470000    -2.75060000   -41.00000000
   61.64080000    -2.77050000   -41.10000000
   61.62690000    -2.79050000   -39.30000000
   61.61340000    -2.81060000   -38.50000000
   61.59990000    -2.83080000   -37.60000000
   61.58640000    -2.85100000   -36.80000000
   61.57290000    -2.87110000   -37.00000000
   61.55940000    -2.89130000   -36.30000000
   61.54590000    -2.91150000   -32.50000000
   61.53240000    -2.93160000   -31.60000000
   61.51890000    -2.95180000   -30.80000000
   61.50540000    -2.97190000   -31.00000000
   61.49190000    -2.99210000   -31.30000000
   61.47840000    -3.01230000   -32.30000000
   61.46490000    -3.03240000   -36.50000000
   61.45140000    -3.05260000   -35.80000000
   61.43790000    -3.07280000   -37.00000000
   61.42440000    -3.09290000   -36.10000000
   61.41110000    -3.11370000   -33.50000000
   61.39790000    -3.13490000   -30.80000000
   61.38470000    -3.15610000   -28.90000000
   61.37460000    -3.17840000   -30.80000000
   61.36450000    -3.20070000   -30.00000000
   61.35440000    -3.22300000   -29.30000000
   61.34430000    -3.24530000   -29.40000000
   61.33390000    -3.26640000   -32.60000000
   61.32340000    -3.28740000   -33.00000000
   61.31290000    -3.30850000   -33.10000000
   61.30270000    -3.32970000   -33.80000000
   61.29350000    -3.35180000   -35.00000000
   61.28430000    -3.37390000   -34.30000000
   61.27510000    -3.39600000   -35.50000000
   61.26590000    -3.41800000   -35.80000000
   61.25680000    -3.44010000   -37.00000000
   61.24760000    -3.46220000   -36.10000000
   61.23840000    -3.48430000   -34.50000000
   61.22960000    -3.50550000   -32.80000000
   61.22070000    -3.52670000   -35.00000000
   61.21190000    -3.54790000   -32.30000000
   61.20300000    -3.56910000   -34.50000000
   61.19420000    -3.59030000   -33.80000000
   61.18530000    -3.61150000   -34.00000000
   61.17650000    -3.63270000   -34.30000000
   61.16760000    -3.65390000   -36.50000000
   61.15880000    -3.67510000   -36.60000000
   61.14990000    -3.69630000   -36.00000000
   61.14110000    -3.71750000   -35.10000000
   61.13220000    -3.73870000   -34.50000000
   61.12340000    -3.75990000   -33.60000000
   61.11450000    -3.78120000   -33.00000000
   61.10570000    -3.80240000   -33.30000000
   61.09680000    -3.82360000   -30.40000000
   61.08800000    -3.84480000   -31.80000000
   61.07950000    -3.86540000   -30.60000000
   61.07140000    -3.88550000   -31.10000000
   61.06330000    -3.90550000   -28.30000000
   61.05530000    -3.92550000   -28.60000000
   61.04720000    -3.94560000   -27.80000000
   61.03910000    -3.96560000   -25.10000000
   61.03100000    -3.98570000   -24.40000000
   60.97650000    -4.08100000   -28.90000000
   60.96390000    -4.10010000   -30.30000000
   60.95120000    -4.11930000   -32.50000000
   60.93860000    -4.13840000   -32.60000000
   60.92600000    -4.15760000   -31.90000000
   60.91330000    -4.17670000   -33.10000000
   60.90070000    -4.19580000   -34.50000000
   60.88810000    -4.21500000   -34.60000000
   60.87520000    -4.23440000   -35.50000000
   60.86250000    -4.25370000   -36.30000000
   60.84980000    -4.27280000   -34.60000000
   60.83700000    -4.29200000   -36.00000000
   60.82430000    -4.31120000   -37.10000000
   60.81160000    -4.33030000   -36.50000000
   60.79890000    -4.34950000   -34.80000000
   60.78610000    -4.36870000   -35.00000000
   60.77340000    -4.38780000   -32.30000000
   60.76070000    -4.40700000   -32.50000000
   60.74800000    -4.42620000   -30.80000000
   60.73530000    -4.44530000   -30.00000000
   60.72350000    -4.46300000   -24.00000000
   60.71240000    -4.47970000   -25.30000000
   60.70130000    -4.49640000   -25.50000000
   60.69010000    -4.51310000   -28.80000000
   60.67900000    -4.52980000   -26.90000000
   60.67740000    -4.47890000   -29.30000000
   60.66630000    -4.49790000   -29.40000000
   60.65520000    -4.51680000   -28.80000000
   60.64410000    -4.53570000   -28.00000000
   60.63300000    -4.55460000   -29.30000000
   60.62190000    -4.57350000   -30.50000000
   60.61070000    -4.59250000   -30.80000000
   60.59960000    -4.61140000   -31.00000000
   60.58850000    -4.63030000   -29.30000000
   60.57740000    -4.64920000   -29.60000000
   60.56630000    -4.66860000   -28.80000000
   60.55530000    -4.68800000   -29.00000000
   60.54420000    -4.70750000   -28.30000000
   60.53310000    -4.72710000   -30.80000000
   60.52190000    -4.74680000   -30.10000000
   60.51080000    -4.76640000   -31.40000000
   60.49970000    -4.78600000   -30.80000000
   60.48850000    -4.80570000   -31.00000000
   60.47740000    -4.82530000   -31.30000000
   60.44390000    -4.88420000   -24.80000000
   60.43280000    -4.90380000   -23.10000000
   60.42170000    -4.92350000   -22.40000000
   60.41050000    -4.94310000   -22.80000000
   60.39940000    -4.96270000   -23.00000000
   60.38820000    -4.98240000   -23.30000000
   60.37710000    -5.00200000   -23.60000000
   60.36600000    -5.02160000   -21.90000000
   60.35500000    -5.04070000   -21.30000000
   60.34430000    -5.05940000   -23.50000000
   60.33310000    -5.07890000   -24.90000000
   60.32200000    -5.09840000   -24.30000000
   60.31080000    -5.11790000   -23.50000000
   60.29960000    -5.13740000   -21.80000000
   60.28840000    -5.15690000   -23.10000000
   60.27730000    -5.17640000   -23.50000000
   60.26610000    -5.19590000   -23.80000000
   60.25490000    -5.21540000   -25.10000000
   60.24380000    -5.23500000   -25.10000000
   60.23270000    -5.25490000   -26.40000000
   60.22160000    -5.27480000   -24.80000000
   60.21060000    -5.29470000   -25.10000000
   60.19950000    -5.31460000   -27.40000000
   60.18840000    -5.33460000   -30.80000000
   60.17730000    -5.35450000   -31.10000000
   60.16620000    -5.37440000   -32.50000000
   60.15520000    -5.39430000   -33.80000000
   60.14410000    -5.41420000   -33.10000000
   60.11510000    -5.46670000   -29.80000000
   60.10400000    -5.48690000   -29.30000000
   60.09360000    -5.50670000   -29.60000000
   60.08330000    -5.52630000   -27.90000000
   60.07300000    -5.54590000   -27.30000000
   60.06270000    -5.56560000   -27.60000000
   60.05240000    -5.58520000   -25.00000000
   60.04210000    -5.60480000   -26.30000000
   60.03180000    -5.62440000   -25.80000000
   60.02150000    -5.64400000   -23.00000000
   60.00500000    -5.67570000   -23.30000000
   59.99480000    -5.69500000   -22.50000000
   59.98480000    -5.71350000   -21.80000000
   59.97470000    -5.73210000   -23.00000000
   59.96460000    -5.75060000   -23.30000000
   59.95460000    -5.76910000   -23.60000000
   59.94450000    -5.78770000   -23.00000000
   59.93440000    -5.80620000   -25.30000000
   59.92430000    -5.82480000   -24.60000000
   59.91430000    -5.84330000   -23.00000000
   59.90420000    -5.86180000   -23.30000000
   59.89410000    -5.88040000   -23.80000000
   59.88410000    -5.89890000   -22.00000000
   59.87400000    -5.91740000   -23.40000000
   59.86390000    -5.93600000   -22.80000000
   59.85390000    -5.95450000   -23.10000000
   59.84380000    -5.97310000   -22.40000000
   59.82190000    -6.01340000   -23.50000000
   59.81090000    -6.03360000   -22.90000000
   59.80000000    -6.05380000   -21.30000000
   59.78900000    -6.07400000   -19.80000000
   59.77800000    -6.09420000   -20.10000000
   59.76710000    -6.11440000   -19.50000000
   59.75610000    -6.13460000   -19.90000000
   59.74520000    -6.15470000   -20.30000000
   59.73420000    -6.17490000   -19.80000000
   59.72360000    -6.19490000   -18.80000000
   59.71310000    -6.21470000   -21.10000000
   59.70270000    -6.23460000   -21.40000000
   59.69220000    -6.25440000   -22.80000000
   59.68180000    -6.27430000   -22.30000000
   59.67130000    -6.29410000   -22.60000000
   59.66090000    -6.31390000   -21.00000000
   59.65040000    -6.33380000   -21.40000000
   59.64000000    -6.35360000   -19.80000000
   59.62950000    -6.37350000   -22.30000000
   59.61880000    -6.39340000   -23.80000000
   59.60670000    -6.41380000   -25.30000000
   59.59470000    -6.43420000   -23.60000000
   59.58270000    -6.45450000   -25.00000000
   59.57100000    -6.47350000   -22.50000000
   59.55970000    -6.49110000   -21.90000000
   59.54840000    -6.50880000   -20.30000000
   59.53700000    -6.52640000   -18.80000000
   59.52570000    -6.54400000   -20.00000000
   59.51440000    -6.56160000   -18.40000000
   59.50280000    -6.57930000   -23.90000000
   59.49030000    -6.59770000   -25.30000000
   59.47780000    -6.61600000   -25.60000000
   59.46530000    -6.63440000   -25.00000000
   59.45280000    -6.65270000   -24.40000000
   59.44030000    -6.67110000   -23.80000000
   59.42780000    -6.68950000   -26.10000000
   59.41530000    -6.70780000   -25.50000000
   59.40280000    -6.72620000   -25.90000000
   59.39030000    -6.74450000   -24.30000000
   59.37780000    -6.76290000   -24.80000000
   59.36530000    -6.78120000   -27.10000000
   59.35210000    -6.80070000   -30.30000000
   59.33880000    -6.81940000   -31.30000000
   59.32540000    -6.83770000   -31.60000000
   59.31200000    -6.85590000   -27.10000000
   59.29860000    -6.87420000   -25.50000000
   59.28520000    -6.89240000   -24.90000000
   59.27180000    -6.91070000   -23.30000000
   59.25840000    -6.92890000   -17.80000000
   59.24500000    -6.94720000   -16.30000000
   59.23160000    -6.96540000   -14.70000000
   59.21790000    -6.98370000   -14.10000000
   59.20340000    -7.00230000   -10.40000000
   59.18890000    -7.02090000   -11.90000000
   59.15980000    -7.05800000    -6.30000000
   59.14530000    -7.07660000    -7.70000000
   59.13080000    -7.09520000    -7.10000000
   59.11630000    -7.11380000    -7.50000000
   59.10200000    -7.13180000    -5.20000000
   59.08780000    -7.14990000    -0.60000000
   59.07360000    -7.16800000    -0.90000000
   59.05930000    -7.18600000    -0.40000000
   59.04510000    -7.20410000     1.30000000
   59.03090000    -7.22220000     2.80000000
   59.01660000    -7.24030000     2.50000000
   59.00240000    -7.25830000     5.10000000
   58.98820000    -7.27640000     8.60000000
   58.97390000    -7.29450000     9.20000000
   58.95970000    -7.31260000    15.70000000
   58.94550000    -7.33060000    15.30000000
   58.83340000    -7.41960000    15.60000000
   58.81930000    -7.43750000    15.20000000
   58.80480000    -7.45590000     8.60000000
   58.78870000    -7.47650000    -0.90000000
   58.77260000    -7.49710000    -1.30000000
   58.75660000    -7.51770000     2.10000000
   58.74050000    -7.53830000     7.70000000
   58.72440000    -7.55880000    10.20000000
   58.70840000    -7.57940000     5.70000000
   58.69230000    -7.60000000    -5.80000000
   58.67620000    -7.62060000    -6.30000000
   58.66020000    -7.64120000    -5.80000000
   58.64410000    -7.66040000    -7.30000000
   58.62800000    -7.67960000    -9.80000000
   58.61190000    -7.69880000   -13.20000000
   58.59570000    -7.71800000   -17.50000000
   58.56860000    -7.75490000   -20.80000000
   58.55760000    -7.77260000   -22.30000000
   58.54650000    -7.79020000   -24.60000000
   58.53550000    -7.80790000   -27.00000000
   58.52440000    -7.82550000   -27.40000000
   58.51340000    -7.84320000   -30.80000000
   58.50230000    -7.86080000   -31.30000000
   58.49240000    -7.87780000   -35.60000000
   58.48250000    -7.89470000   -41.00000000
   58.47250000    -7.91160000   -44.50000000
   58.46260000    -7.92860000   -46.80000000
   58.45270000    -7.94550000   -46.30000000
   58.44280000    -7.96250000   -47.60000000
   58.43280000    -7.97940000   -46.00000000
   58.42290000    -7.99630000   -43.50000000
   58.41300000    -8.01330000   -42.00000000
   58.40290000    -8.03210000   -42.80000000
   58.39280000    -8.05140000   -42.30000000
   58.38270000    -8.07070000   -39.80000000
   58.37260000    -8.09000000   -39.30000000
   58.36250000    -8.10930000   -39.80000000
   58.35260000    -8.12820000   -38.80000000
   58.34260000    -8.14710000   -36.50000000
   58.33270000    -8.16590000   -35.00000000
   58.32280000    -8.18480000   -34.30000000
   58.31280000    -8.20370000   -34.80000000
   58.27300000    -8.27910000   -36.80000000
   58.25320000    -8.31690000   -37.80000000
   58.24320000    -8.33570000   -39.30000000
   58.23330000    -8.35460000   -40.80000000
   58.22330000    -8.37350000   -42.10000000
   58.21340000    -8.39230000   -43.60000000
   58.20340000    -8.41120000   -44.10000000
   58.19350000    -8.43010000   -44.60000000
   58.18360000    -8.44900000   -45.10000000
   58.17350000    -8.46800000   -44.80000000
   58.16350000    -8.48700000   -45.30000000
   58.15350000    -8.50610000   -46.80000000
   58.14350000    -8.52510000   -47.30000000
   58.13350000    -8.54420000   -47.80000000
   58.12400000    -8.56290000   -47.00000000
   58.11440000    -8.58160000   -45.50000000
   58.10490000    -8.60030000   -43.00000000
   58.09540000    -8.61900000   -39.60000000
   58.08580000    -8.63770000   -36.10000000
   58.07630000    -8.65640000   -34.60000000
   58.06680000    -8.67510000   -35.10000000
   58.05720000    -8.69380000   -33.60000000
   58.04770000    -8.71250000   -35.10000000
   58.03810000    -8.73120000   -35.60000000
   58.02890000    -8.74990000   -35.80000000
   58.01990000    -8.76860000   -37.30000000
   58.01090000    -8.78730000   -34.80000000
   58.00200000    -8.80600000   -33.30000000
   57.99300000    -8.82470000   -30.80000000
   57.98400000    -8.84340000   -29.30000000
   57.97500000    -8.86210000   -27.90000000
   57.96600000    -8.88080000   -26.40000000
   57.95700000    -8.89950000   -23.90000000
   57.94770000    -8.91900000   -22.30000000
   57.93840000    -8.93850000   -22.80000000
   57.92920000    -8.95810000   -21.60000000
   57.92020000    -8.97800000   -20.30000000
   57.91120000    -8.99780000   -18.80000000
   57.90220000    -9.01770000   -19.30000000
   57.89320000    -9.03760000   -18.90000000
   57.88420000    -9.05740000   -16.50000000
   57.87520000    -9.07730000   -17.00000000
   57.86620000    -9.09710000   -18.60000000
   57.85710000    -9.11700000   -19.10000000
   57.84810000    -9.13690000   -19.80000000
   57.83960000    -9.15570000   -17.60000000
   57.83120000    -9.17430000   -17.30000000
   57.82200000    -9.19290000   -19.30000000
   57.81260000    -9.21150000   -17.90000000
   57.80310000    -9.23010000   -19.40000000
   57.79370000    -9.24860000   -19.90000000
   57.71050000    -9.32150000   -11.70000000
   57.70130000    -9.34030000   -12.20000000
   57.69210000    -9.35900000   -11.80000000
   57.66860000    -9.41600000   -12.60000000
   57.66130000    -9.43510000   -14.20000000
   57.65410000    -9.45420000   -14.70000000
   57.64680000    -9.47330000   -15.30000000
   57.63950000    -9.49240000   -16.80000000
   57.63230000    -9.51150000   -16.30000000
   57.62500000    -9.53060000   -17.90000000
   57.61780000    -9.54970000   -16.50000000
   57.61050000    -9.56880000   -16.00000000
   57.59600000    -9.60700000   -18.10000000
   57.58880000    -9.62610000   -18.80000000
   57.58150000    -9.64520000   -17.30000000
   57.57430000    -9.66430000   -16.90000000
   57.56700000    -9.68340000   -15.60000000
   57.55980000    -9.70240000   -16.00000000
   57.55250000    -9.72150000   -16.60000000
   57.54530000    -9.74060000   -17.30000000
   57.53800000    -9.75970000   -17.80000000
   57.53070000    -9.77910000   -17.60000000
   57.52330000    -9.79850000   -18.30000000
   57.51590000    -9.81780000   -18.80000000
   57.50860000    -9.83720000   -19.30000000
   57.50120000    -9.85650000   -18.90000000
   57.49390000    -9.87590000   -18.50000000
   57.48650000    -9.89530000   -18.10000000
   57.47920000    -9.91460000   -17.80000000
   57.47180000    -9.93400000   -17.30000000
   57.46450000    -9.95330000   -15.90000000
   57.45710000    -9.97270000   -14.70000000
   57.44970000    -9.99200000   -12.30000000
   57.44240000   -10.01140000   -12.90000000
   57.42770000   -10.05010000   -14.10000000
   57.42030000   -10.06950000   -14.70000000
   57.41300000   -10.08880000   -15.30000000
   57.40560000   -10.10820000   -13.90000000
   57.39810000   -10.12790000   -16.80000000
   57.39060000   -10.14760000   -17.30000000
   57.38310000   -10.16730000   -17.90000000
   57.37560000   -10.18700000   -16.60000000
   57.35970000   -10.22620000   -18.10000000
   57.35090000   -10.24560000   -17.80000000
   57.34210000   -10.26500000   -15.40000000
   57.33340000   -10.28450000   -15.10000000
   57.32460000   -10.30390000   -15.70000000
   57.31590000   -10.32330000   -16.30000000
   57.30710000   -10.34270000   -15.90000000
   57.29840000   -10.36220000   -14.60000000
   57.28960000   -10.38160000   -15.20000000
   57.28080000   -10.40100000   -13.90000000
   57.27180000   -10.42040000   -16.10000000
   57.26270000   -10.43980000   -15.90000000
   57.25370000   -10.45920000   -16.40000000
   57.24440000   -10.47910000   -18.40000000
   57.23520000   -10.49890000   -18.10000000
   57.22600000   -10.51870000   -18.80000000
   57.21680000   -10.53860000   -19.40000000
   57.20760000   -10.55840000   -20.00000000
   57.19840000   -10.57820000   -19.80000000
   57.18910000   -10.59810000   -20.30000000
   57.17990000   -10.61790000   -20.00000000
   57.17070000   -10.63780000   -17.60000000
   57.16120000   -10.65720000   -20.30000000
   57.15120000   -10.67610000   -20.90000000
   57.14120000   -10.69490000   -21.50000000
   57.13120000   -10.71380000   -19.10000000
   57.12120000   -10.73260000   -22.80000000
   57.11120000   -10.75150000   -21.40000000
   57.10120000   -10.77030000   -21.00000000
   57.09120000   -10.78920000   -20.60000000
   57.05410000   -10.84440000   -19.80000000
   57.04060000   -10.86250000   -18.40000000
   57.00000000   -10.91700000   -14.90000000
   56.98640000   -10.93510000   -13.40000000
   56.97290000   -10.95330000   -11.20000000
   56.95930000   -10.97140000    -9.80000000
   56.94580000   -10.98960000   -10.40000000
   56.93230000   -11.00770000   -10.10000000
   56.91870000   -11.02590000   -11.70000000
   56.90520000   -11.04400000   -12.30000000
   56.89160000   -11.06220000   -14.90000000
   56.87810000   -11.08030000   -12.40000000
   56.86450000   -11.09850000   -11.10000000
   56.85100000   -11.11660000   -11.80000000
   56.83750000   -11.13480000   -10.40000000
   56.82390000   -11.15300000   -11.10000000
   56.81030000   -11.17120000    -8.80000000
   56.79670000   -11.18950000   -10.40000000
   56.78310000   -11.20770000    -8.90000000
   56.76950000   -11.22590000    -6.70000000
   56.75590000   -11.24420000    -2.30000000
   56.74250000   -11.26190000     2.80000000
   56.72920000   -11.27970000     8.20000000
   56.71590000   -11.29740000     5.70000000
   56.70260000   -11.31520000    -1.00000000
   56.68920000   -11.33290000    -9.60000000
   56.67590000   -11.35070000   -15.20000000
   56.66260000   -11.36840000   -17.80000000
   56.64930000   -11.38620000   -19.30000000
   56.63590000   -11.40390000   -18.90000000
   56.62260000   -11.42170000   -19.50000000
   56.60930000   -11.43940000   -18.30000000
   56.59600000   -11.45720000   -17.80000000
   56.58260000   -11.47490000   -17.40000000
   56.56930000   -11.49270000   -18.10000000
   56.55620000   -11.51030000   -18.60000000
   56.54330000   -11.52780000   -19.30000000
   56.53030000   -11.54530000   -18.80000000
   56.51740000   -11.56280000   -19.40000000
   56.50450000   -11.58040000   -21.10000000
   56.49150000   -11.59790000   -21.80000000
   56.47850000   -11.61550000   -22.40000000
   56.46560000   -11.63310000   -21.00000000
