  111.67970000   -20.93760000    -9.90000000
  111.73860000   -20.95970000    -6.80000000
  111.73960000   -20.97510000    -6.80000000
  111.74160000   -21.00000000   -12.10000000
  111.74390000   -21.02730000   -18.60000000
  111.74620000   -21.05460000   -23.30000000
  111.74850000   -21.08180000   -27.80000000
  111.75080000   -21.10910000   -33.50000000
  111.75310000   -21.13630000   -39.00000000
  111.75530000   -21.16360000   -45.60000000
  111.75760000   -21.19090000   -48.30000000
  111.75990000   -21.21810000   -54.00000000
  111.76220000   -21.24540000   -58.50000000
  111.76450000   -21.27270000   -63.10000000
  111.76680000   -21.29990000   -68.80000000
  111.76910000   -21.32720000   -70.50000000
  111.77140000   -21.35440000   -70.20000000
  111.77370000   -21.38170000   -68.90000000
  111.77600000   -21.40900000   -67.60000000
  111.77830000   -21.43620000   -65.30000000
  111.78060000   -21.46350000   -63.00000000
  111.78290000   -21.49120000   -58.50000000
  111.78530000   -21.51900000   -55.30000000
  111.78760000   -21.54670000   -55.00000000
  111.79000000   -21.57440000   -53.80000000
  111.79230000   -21.60220000   -52.50000000
  111.79520000   -21.62970000   -50.00000000
  111.79810000   -21.65730000   -49.80000000
  111.80100000   -21.68490000   -49.50000000
  111.80390000   -21.71240000   -49.30000000
  111.80680000   -21.74000000   -49.00000000
  111.80970000   -21.76760000   -47.60000000
  111.81260000   -21.79520000   -47.50000000
  111.81550000   -21.82270000   -48.10000000
  111.81840000   -21.85030000   -46.80000000
  111.82130000   -21.87790000   -48.50000000
  111.82530000   -21.90640000   -46.30000000
  111.82990000   -21.93480000   -47.10000000
  111.83450000   -21.96330000   -48.00000000
  111.89340000   -21.99190000   -47.50000000
  111.91860000   -21.99490000   -47.60000000
  111.94380000   -21.99790000   -46.80000000
  111.86910000   -21.93860000   -50.80000000
  111.84980000   -21.92500000   -50.80000000
  111.81110000   -21.89770000   -48.10000000
  111.79170000   -21.88400000   -46.30000000
  111.75300000   -21.85670000   -45.60000000
  111.73360000   -21.84310000   -44.80000000
  111.71420000   -21.82950000   -44.00000000
  111.69390000   -21.81620000   -47.00000000
  111.67290000   -21.80310000   -48.10000000
  111.65180000   -21.79000000   -47.30000000
  111.63180000   -21.77770000   -46.30000000
  111.61170000   -21.76540000   -45.60000000
  111.59170000   -21.75310000   -44.80000000
  111.57160000   -21.74080000   -44.10000000
  111.55150000   -21.72840000   -42.30000000
  111.53120000   -21.71450000   -41.80000000
  111.51060000   -21.69950000   -40.80000000
  111.49000000   -21.68450000   -40.00000000
  111.46940000   -21.66950000   -39.00000000
  111.44880000   -21.65450000   -39.00000000
  111.42810000   -21.63940000   -39.30000000
  111.40750000   -21.62420000   -41.30000000
  111.37160000   -21.59280000   -39.00000000
  111.35360000   -21.57710000   -40.10000000
  111.33560000   -21.56140000   -41.10000000
  111.31770000   -21.54580000   -41.10000000
  111.29970000   -21.53010000   -41.10000000
  111.28180000   -21.51440000   -41.10000000
  111.26380000   -21.49870000   -42.30000000
  111.24580000   -21.48300000   -42.30000000
  111.22700000   -21.46740000   -44.50000000
  111.20810000   -21.45170000   -44.50000000
  111.18930000   -21.43610000   -43.50000000
  111.17050000   -21.42050000   -43.50000000
  111.15160000   -21.40490000   -43.50000000
  111.13280000   -21.38920000   -41.60000000
  111.11390000   -21.37360000   -40.60000000
  111.09510000   -21.35800000   -40.60000000
  111.07620000   -21.34230000   -39.80000000
  111.05710000   -21.32640000   -39.60000000
  111.03790000   -21.31040000   -38.60000000
  111.01870000   -21.29450000   -37.60000000
  110.99950000   -21.27850000   -36.80000000
  110.98040000   -21.26260000   -35.80000000
  110.96120000   -21.24660000   -34.80000000
  110.94190000   -21.23090000   -35.00000000
  110.92220000   -21.21630000   -34.10000000
  110.90260000   -21.20160000   -34.30000000
  110.88290000   -21.18700000   -35.30000000
  110.86320000   -21.17240000   -35.50000000
  110.84300000   -21.15730000   -36.80000000
  110.82280000   -21.14210000   -36.80000000
  110.80260000   -21.12690000   -37.00000000
  110.78240000   -21.11180000   -37.00000000
  110.76220000   -21.09660000   -37.10000000
  110.74220000   -21.08130000   -35.80000000
  110.72300000   -21.06530000   -35.80000000
  110.70380000   -21.04940000   -35.80000000
  110.68460000   -21.03340000   -35.80000000
  110.66540000   -21.01750000   -35.80000000
  110.64630000   -21.00150000   -34.00000000
  110.62710000   -20.98550000   -31.90000000
  110.60790000   -20.96960000   -31.00000000
  110.51210000   -21.08840000   -31.10000000
  110.49590000   -21.10860000   -28.40000000
  110.47970000   -21.12870000   -27.60000000
  110.46340000   -21.14880000   -17.00000000
  110.44720000   -21.16890000   -13.40000000
  110.43100000   -21.18900000    -9.60000000
  110.41470000   -21.20920000    -3.80000000
  110.39850000   -21.22930000    -0.20000000
  110.38230000   -21.24940000     3.60000000
  110.36600000   -21.26950000     5.50000000
  110.34980000   -21.28960000     4.20000000
  110.33360000   -21.30980000     3.00000000
  110.31750000   -21.33060000     2.50000000
  110.30160000   -21.35250000     1.30000000
  110.28560000   -21.37440000    -0.30000000
  110.26970000   -21.39630000     0.60000000
  110.25380000   -21.41830000     1.10000000
  110.23790000   -21.44020000     5.80000000
  110.22200000   -21.46210000     9.40000000
  110.20610000   -21.48400000    11.90000000
  110.19020000   -21.50590000     9.70000000
  110.22780000   -21.53890000    -5.30000000
  110.24620000   -21.55330000   -22.80000000
  110.26420000   -21.56620000   -37.50000000
  110.28200000   -21.57910000   -46.60000000
  110.29940000   -21.59200000   -52.50000000
  110.31680000   -21.60490000   -55.10000000
  110.33420000   -21.61770000   -60.00000000
  110.35160000   -21.63060000   -59.80000000
  110.36900000   -21.64340000   -60.50000000
  110.38640000   -21.65630000   -61.30000000
  110.40380000   -21.66910000   -60.10000000
  110.42120000   -21.68200000   -59.00000000
  110.43860000   -21.69490000   -57.80000000
  110.45600000   -21.70770000   -56.60000000
  110.47340000   -21.72060000   -56.50000000
  110.49080000   -21.73340000   -56.30000000
  110.50820000   -21.74630000   -55.10000000
  110.52560000   -21.75910000   -54.00000000
  110.54300000   -21.77190000   -52.80000000
  110.56040000   -21.78470000   -52.60000000
  110.57780000   -21.79760000   -52.50000000
  110.59510000   -21.81040000   -51.30000000
  110.61250000   -21.82320000   -50.00000000
  110.62990000   -21.83600000   -50.80000000
  110.64730000   -21.84890000   -52.60000000
  110.66470000   -21.86170000   -54.50000000
  110.68210000   -21.87450000   -54.30000000
  110.69950000   -21.88740000   -53.00000000
  110.71680000   -21.90020000   -52.80000000
  110.73420000   -21.91300000   -52.60000000
  110.75160000   -21.92580000   -52.50000000
  110.76900000   -21.93870000   -51.30000000
  110.78760000   -21.95400000   -48.50000000
  110.80630000   -21.96940000   -48.50000000
  110.82510000   -21.98490000   -46.80000000
  110.84400000   -22.00040000   -44.80000000
  110.86290000   -22.01590000   -46.80000000
  110.88180000   -22.03140000   -48.80000000
  110.90070000   -22.04690000   -48.80000000
  110.91960000   -22.06240000   -49.80000000
  110.93850000   -22.07790000   -49.80000000
  110.95740000   -22.09350000   -50.80000000
  110.97620000   -22.10900000   -52.80000000
  110.99510000   -22.12450000   -52.60000000
  111.01400000   -22.14000000   -53.60000000
  111.03290000   -22.15550000   -54.60000000
  111.05180000   -22.17100000   -56.60000000
  111.07070000   -22.18650000   -57.50000000
  111.08960000   -22.20200000   -58.50000000
  111.10850000   -22.21760000   -60.50000000
  111.12740000   -22.23310000   -61.50000000
  111.14770000   -22.24830000   -58.30000000
  111.16840000   -22.26340000   -58.30000000
  111.18910000   -22.27860000   -59.30000000
  111.20980000   -22.29370000   -59.30000000
  111.23040000   -22.30880000   -61.50000000
  111.25100000   -22.32390000   -63.50000000
  111.27170000   -22.33890000   -64.40000000
  111.29230000   -22.35400000   -64.40000000
  111.31290000   -22.36910000   -64.40000000
  111.33350000   -22.38410000   -64.30000000
  111.35410000   -22.39920000   -63.30000000
  111.37470000   -22.41430000   -63.30000000
  111.39520000   -22.42930000   -64.30000000
  111.41540000   -22.44430000   -66.20000000
  111.43560000   -22.45940000   -66.20000000
  111.45580000   -22.47440000   -66.20000000
  111.47590000   -22.48940000   -66.10000000
  111.49610000   -22.50440000   -66.10000000
  111.51630000   -22.51940000   -66.10000000
  111.53650000   -22.53440000   -65.00000000
  111.55670000   -22.54940000   -65.00000000
  111.57690000   -22.56440000   -64.00000000
  111.59800000   -22.53850000   -56.80000000
  111.60810000   -22.52410000   -56.00000000
  111.61820000   -22.50970000   -56.00000000
  111.62820000   -22.49520000   -55.10000000
  111.63830000   -22.48080000   -55.10000000
  111.64840000   -22.46640000   -55.30000000
  111.65850000   -22.45190000   -56.30000000
  111.66850000   -22.43750000   -55.30000000
  111.67860000   -22.42310000   -54.50000000
  111.68870000   -22.40870000   -54.50000000
  111.69880000   -22.39420000   -54.60000000
  111.70880000   -22.37980000   -53.80000000
  111.71890000   -22.36540000   -52.80000000
  111.72900000   -22.35090000   -51.80000000
  111.73910000   -22.33650000   -52.00000000
  111.74910000   -22.32210000   -52.00000000
  111.75920000   -22.30770000   -52.10000000
  111.76930000   -22.29320000   -52.10000000
  111.77940000   -22.27880000   -53.30000000
  111.78950000   -22.26440000   -52.30000000
  111.79950000   -22.24990000   -51.50000000
  111.80960000   -22.23550000   -50.50000000
  111.81970000   -22.22110000   -50.60000000
  111.82980000   -22.20660000   -49.60000000
  111.82790000   -22.21930000   -58.80000000
  111.82160000   -22.23100000   -58.30000000
  111.81540000   -22.24180000   -58.80000000
  111.80920000   -22.25270000   -59.50000000
  111.80290000   -22.26350000   -60.30000000
  111.79670000   -22.27430000   -61.00000000
  111.79050000   -22.28520000   -61.60000000
  111.78430000   -22.29600000   -62.30000000
  111.77810000   -22.30680000   -62.00000000
  111.77190000   -22.31760000   -62.60000000
  111.76560000   -22.32850000   -63.30000000
  111.78620000   -22.30760000   -59.60000000
  111.79510000   -22.28740000   -57.30000000
  111.80400000   -22.26720000   -57.10000000
  111.81300000   -22.24700000   -55.80000000
  111.82190000   -22.22680000   -54.50000000
  111.75090000   -22.22630000   -53.50000000
  111.72740000   -22.21320000   -50.80000000
  111.70390000   -22.20000000   -49.00000000
  111.68030000   -22.18690000   -48.00000000
  111.65680000   -22.17370000   -47.30000000
  111.63330000   -22.16050000   -47.50000000
  111.60970000   -22.14740000   -46.50000000
  111.58620000   -22.13420000   -45.80000000
  111.56270000   -22.12110000   -46.00000000
  111.53910000   -22.10790000   -46.00000000
  111.51560000   -22.09480000   -45.30000000
  111.49200000   -22.08160000   -44.50000000
  111.46840000   -22.06840000   -45.80000000
  111.44480000   -22.05520000   -45.00000000
  111.42130000   -22.04200000   -44.10000000
  111.39770000   -22.02880000   -43.30000000
  111.37410000   -22.01560000   -43.50000000
  111.35050000   -22.00230000   -43.60000000
  111.32690000   -21.98910000   -41.80000000
  111.30330000   -21.97590000   -41.00000000
  111.27970000   -21.96270000   -40.30000000
  111.25440000   -21.92020000   -38.00000000
  111.24290000   -21.89810000   -37.80000000
  111.23150000   -21.87590000   -35.30000000
  111.22000000   -21.85380000   -34.00000000
  111.16980000   -21.91440000   -44.00000000
  111.15730000   -21.93280000   -45.10000000
  111.14490000   -21.95110000   -46.30000000
  111.13250000   -21.96950000   -46.50000000
  111.12000000   -21.98770000   -46.60000000
  111.10750000   -22.00580000   -47.80000000
  111.09500000   -22.02380000   -48.00000000
  111.08200000   -22.04240000   -49.10000000
  111.06910000   -22.06100000   -49.30000000
  111.05610000   -22.07960000   -49.50000000
  111.04320000   -22.09820000   -48.60000000
  111.03020000   -22.11680000   -47.80000000
  111.01730000   -22.13530000   -48.00000000
  111.00430000   -22.15390000   -48.30000000
  110.99130000   -22.17250000   -48.50000000
  110.97730000   -22.19150000   -52.00000000
  110.96330000   -22.21040000   -53.30000000
  110.94930000   -22.22940000   -53.50000000
  110.93530000   -22.24840000   -53.60000000
  110.92200000   -22.26620000   -49.80000000
  110.90920000   -22.28320000   -49.00000000
  110.89640000   -22.30020000   -49.00000000
  110.89710000   -22.28410000   -46.00000000
  110.90750000   -22.26780000   -46.00000000
  110.91780000   -22.25140000   -46.00000000
  110.92810000   -22.23500000   -46.00000000
  110.93840000   -22.21870000   -44.80000000
  110.94870000   -22.20230000   -43.80000000
  110.95900000   -22.18590000   -43.80000000
  110.96930000   -22.16950000   -43.80000000
  110.97960000   -22.15320000   -42.80000000
  110.98990000   -22.13680000   -40.80000000
  111.00020000   -22.12040000   -39.80000000
  111.01050000   -22.10400000   -38.60000000
  111.02080000   -22.08770000   -37.60000000
  111.03110000   -22.07130000   -36.60000000
  111.04140000   -22.05490000   -34.60000000
  111.05170000   -22.03850000   -34.50000000
  111.06200000   -22.02220000   -36.50000000
  111.07230000   -22.00580000   -37.50000000
  111.08260000   -21.98940000   -39.50000000
  111.11680000   -21.93560000   -47.00000000
  111.12550000   -21.92190000   -40.30000000
  111.13570000   -21.90560000   -40.30000000
  111.14590000   -21.88940000   -40.30000000
  111.13760000   -21.90480000   -42.30000000
  111.12820000   -21.92080000   -47.10000000
  111.11840000   -21.93740000   -46.10000000
  111.10850000   -21.95440000   -46.50000000
  111.09860000   -21.97210000   -47.60000000
  111.08870000   -21.98980000   -48.80000000
  111.07880000   -22.00750000   -47.80000000
  111.06890000   -22.02520000   -48.00000000
  111.05900000   -22.04290000   -46.10000000
  111.04900000   -22.06060000   -43.30000000
  111.03910000   -22.07830000   -41.50000000
  111.02920000   -22.09600000   -42.50000000
  111.01930000   -22.11370000   -44.60000000
  111.00940000   -22.13080000   -45.50000000
  110.99960000   -22.14700000   -45.50000000
  110.98980000   -22.16310000   -47.50000000
  110.98000000   -22.17930000   -47.50000000
  110.97020000   -22.19540000   -48.50000000
  110.96040000   -22.21160000   -49.50000000
  110.95030000   -22.22810000   -50.00000000
  110.94030000   -22.24460000   -50.00000000
  110.93020000   -22.26110000   -50.10000000
  110.92020000   -22.27770000   -49.30000000
  110.91020000   -22.29420000   -49.30000000
  110.90000000   -22.31100000   -50.60000000
  110.88980000   -22.32770000   -50.60000000
  110.91790000   -22.35230000   -53.30000000
  110.93760000   -22.36620000   -54.10000000
  110.95740000   -22.38010000   -56.00000000
  110.97720000   -22.39390000   -56.00000000
  110.99700000   -22.40780000   -55.80000000
  111.01680000   -22.42160000   -56.80000000
  111.03660000   -22.43550000   -57.50000000
  111.05630000   -22.44940000   -58.50000000
  111.07610000   -22.46320000   -58.30000000
  111.09590000   -22.47710000   -58.30000000
  111.12910000   -22.50050000   -58.10000000
  111.14830000   -22.51400000   -59.00000000
  111.21550000   -22.54460000   -62.50000000
  111.23790000   -22.55480000   -63.30000000
  111.26030000   -22.56500000   -63.00000000
  111.28270000   -22.57530000   -63.50000000
  111.30510000   -22.58550000   -65.20000000
  111.32750000   -22.59570000   -65.90000000
  111.34990000   -22.60590000   -65.60000000
  111.37230000   -22.61610000   -66.20000000
  111.39470000   -22.62630000   -65.90000000
  111.41710000   -22.63650000   -65.50000000
  111.43950000   -22.64670000   -65.20000000
  111.46190000   -22.65690000   -64.90000000
  111.48430000   -22.66710000   -64.50000000
  111.51770000   -22.68260000   -62.50000000
  111.53190000   -22.68930000   -62.00000000
  111.46640000   -22.62360000   -55.80000000
  111.47660000   -22.60620000   -55.80000000
  111.48690000   -22.58880000   -55.60000000
  111.49720000   -22.57130000   -55.50000000
  111.50750000   -22.55390000   -55.30000000
  111.51780000   -22.53650000   -55.30000000
  111.52810000   -22.51910000   -53.10000000
  111.53840000   -22.50170000   -52.00000000
  111.54870000   -22.48420000   -52.00000000
  111.55900000   -22.46680000   -51.80000000
  111.56930000   -22.44940000   -50.80000000
  111.57960000   -22.43200000   -51.50000000
  111.58990000   -22.41460000   -50.50000000
  111.60020000   -22.39710000   -50.30000000
  111.61050000   -22.37970000   -51.30000000
  111.62080000   -22.36230000   -52.00000000
  111.63110000   -22.34490000   -53.00000000
  111.64010000   -22.32970000   -55.00000000
  111.64910000   -22.31450000   -54.00000000
  111.65810000   -22.29930000   -53.00000000
  111.68890000   -22.24200000   -54.00000000
  111.67790000   -22.26240000   -53.50000000
  111.66690000   -22.28290000   -53.80000000
  111.65590000   -22.30340000   -55.00000000
  111.64490000   -22.32380000   -56.30000000
  111.63380000   -22.34430000   -56.50000000
  111.62280000   -22.36480000   -57.80000000
  111.61180000   -22.38520000   -59.10000000
  111.60080000   -22.40570000   -58.50000000
  111.58980000   -22.42610000   -57.80000000
  111.57870000   -22.44660000   -58.10000000
  111.56770000   -22.46710000   -57.50000000
  111.55670000   -22.48750000   -56.80000000
  111.54570000   -22.50800000   -56.10000000
  111.53470000   -22.52850000   -57.50000000
  111.52360000   -22.54890000   -57.80000000
  111.51260000   -22.56940000   -59.00000000
  111.50160000   -22.58990000   -62.30000000
  111.49060000   -22.61030000   -62.60000000
  111.47960000   -22.63080000   -63.00000000
  111.46850000   -22.65120000   -64.30000000
  111.34540000   -22.64940000   -65.40000000
  111.32390000   -22.63530000   -63.50000000
  111.30240000   -22.62110000   -62.60000000
  111.28090000   -22.60700000   -61.60000000
  111.25950000   -22.59290000   -60.80000000
  111.23800000   -22.57870000   -59.80000000
  111.21650000   -22.56460000   -59.00000000
  111.19500000   -22.55050000   -56.10000000
  111.17360000   -22.53630000   -54.30000000
  111.15170000   -22.52190000   -53.80000000
  111.12920000   -22.50720000   -53.80000000
  111.10670000   -22.49240000   -53.80000000
  111.08420000   -22.47760000   -53.80000000
  111.06180000   -22.46280000   -54.00000000
  111.03930000   -22.44810000   -54.00000000
  111.01660000   -22.43310000   -54.50000000
  110.99390000   -22.41820000   -54.50000000
  110.97130000   -22.40330000   -54.60000000
  110.94860000   -22.38840000   -53.60000000
  110.92600000   -22.37350000   -52.80000000
  110.90330000   -22.35850000   -51.80000000
  110.88060000   -22.34360000   -50.80000000
  110.85800000   -22.32870000   -50.80000000
  110.83530000   -22.31380000   -50.00000000
  110.81260000   -22.29890000   -50.00000000
  110.79000000   -22.28390000   -50.00000000
  110.76700000   -22.26880000   -53.30000000
  110.74300000   -22.25290000   -53.30000000
  110.71900000   -22.23700000   -51.30000000
  110.69500000   -22.22110000   -50.30000000
  110.67100000   -22.20520000   -50.30000000
  110.64700000   -22.18930000   -51.30000000
  110.62300000   -22.17340000   -51.30000000
  110.59920000   -22.15760000   -50.80000000
  110.57530000   -22.14180000   -50.80000000
  110.55150000   -22.12600000   -50.80000000
  110.52770000   -22.11020000   -51.80000000
  110.50490000   -22.09420000   -49.30000000
  110.48220000   -22.07830000   -49.30000000
  110.46000000   -22.06330000   -48.30000000
  110.43780000   -22.04830000   -49.30000000
  110.41560000   -22.03320000   -49.30000000
  110.39340000   -22.01820000   -50.30000000
  110.37120000   -22.00310000   -51.30000000
  110.34900000   -21.98810000   -51.50000000
  110.32680000   -21.97300000   -51.50000000
  110.30460000   -21.95800000   -51.50000000
  110.28240000   -21.94300000   -51.50000000
  110.26020000   -21.92790000   -51.60000000
  110.23800000   -21.91290000   -50.60000000
  110.21580000   -21.89780000   -49.80000000
  110.19320000   -21.88250000   -50.80000000
  110.17060000   -21.86720000   -49.80000000
  110.14810000   -21.85190000   -48.80000000
  110.10650000   -21.81860000   -40.60000000
  110.08570000   -21.80200000   -35.60000000
  110.06500000   -21.78530000   -32.60000000
  110.04420000   -21.76870000   -34.60000000
  110.02340000   -21.75210000   -38.50000000
  110.00260000   -21.73540000   -42.50000000
  109.98190000   -21.71880000   -46.30000000
  109.96110000   -21.70220000   -46.30000000
  109.94030000   -21.68560000   -46.30000000
  109.91950000   -21.66890000   -48.30000000
  109.89880000   -21.65230000   -50.10000000
  109.87800000   -21.63570000   -51.10000000
  109.85740000   -21.61820000   -49.50000000
  109.83690000   -21.60060000   -49.50000000
  109.77840000   -21.55050000   -44.50000000
  109.75780000   -21.53290000   -41.50000000
  109.73730000   -21.51520000   -40.50000000
  109.71670000   -21.49760000   -40.30000000
  109.69610000   -21.47990000   -38.30000000
  109.67550000   -21.46230000   -39.10000000
  109.65450000   -21.44500000   -39.50000000
  109.59530000   -21.39940000   -39.50000000
  109.57420000   -21.38310000   -39.50000000
  109.55320000   -21.36680000   -39.50000000
  109.53210000   -21.35040000   -40.50000000
  109.51110000   -21.33410000   -41.50000000
  109.49000000   -21.31780000   -42.50000000
  109.46900000   -21.30150000   -42.50000000
  109.44790000   -21.28520000   -41.50000000
  109.42780000   -21.26880000   -37.80000000
  109.40830000   -21.25230000   -35.00000000
  109.38880000   -21.23580000   -34.00000000
  109.36920000   -21.21940000   -33.00000000
  109.34970000   -21.20290000   -31.90000000
  109.29340000   -21.14860000   -16.00000000
  109.27460000   -21.13050000    -6.10000000
  109.25580000   -21.11240000    -4.10000000
  109.23700000   -21.09430000   -10.90000000
  109.21940000   -21.07640000   -19.80000000
  109.20180000   -21.05840000   -27.30000000
  109.18390000   -21.04020000   -31.10000000
  109.16600000   -21.02200000   -32.00000000
  109.14820000   -21.00390000   -37.00000000
  109.13030000   -20.98570000   -36.80000000
  109.11250000   -20.96750000   -38.60000000
  109.09440000   -20.94930000   -39.30000000
  109.07580000   -20.93100000   -38.30000000
  109.05730000   -20.91280000   -37.00000000
  109.03880000   -20.89470000   -35.80000000
  109.00400000   -20.63120000   -36.00000000
  109.04090000   -20.58280000   -36.50000000
  109.05400000   -20.56580000   -36.50000000
  109.06720000   -20.54870000   -36.50000000
  109.08030000   -20.53170000   -36.50000000
  109.09340000   -20.51460000   -36.50000000
  109.10660000   -20.49750000   -36.50000000
  109.11970000   -20.48050000   -36.50000000
  109.13290000   -20.46340000   -37.50000000
  109.14600000   -20.44630000   -38.30000000
  109.09410000   -20.51480000   -47.30000000
  109.07930000   -20.53300000   -47.50000000
  109.06450000   -20.55130000   -47.50000000
  109.04970000   -20.56950000   -49.50000000
  109.03490000   -20.58780000   -48.60000000
  109.02000000   -20.60600000   -48.80000000
  108.95640000   -20.66470000   -28.30000000
  108.96740000   -20.65070000   -30.50000000
  108.98990000   -20.62100000   -34.00000000
  109.00190000   -20.60430000   -38.00000000
  109.01400000   -20.58760000   -36.00000000
  109.02600000   -20.57090000   -35.00000000
  109.03810000   -20.55420000   -34.00000000
  109.05010000   -20.53750000   -33.00000000
  109.06210000   -20.52080000   -31.00000000
  109.07420000   -20.50410000   -29.00000000
  109.08620000   -20.48740000   -29.00000000
  109.09830000   -20.47080000   -29.00000000
  109.11030000   -20.45410000   -29.00000000
  109.12230000   -20.43740000   -29.00000000
  109.13440000   -20.42070000   -29.00000000
  109.14640000   -20.40400000   -29.00000000
  109.04120000   -20.30070000   -20.90000000
  109.01930000   -20.28700000   -18.60000000
  108.99740000   -20.27340000   -16.80000000
  108.97550000   -20.25970000   -17.00000000
  108.95360000   -20.24610000   -22.30000000
  108.93180000   -20.23240000   -26.30000000
  108.90990000   -20.21880000   -29.50000000
  108.88800000   -20.20510000   -33.60000000
  108.86610000   -20.19140000   -37.80000000
  108.84420000   -20.17780000   -39.00000000
  108.82240000   -20.16410000   -39.30000000
  108.80050000   -20.15050000   -39.30000000
  108.77860000   -20.13680000   -39.50000000
  108.75640000   -20.12300000   -40.50000000
  108.73430000   -20.10910000   -39.80000000
  108.71210000   -20.09530000   -38.00000000
  108.68990000   -20.08150000   -36.10000000
  108.66780000   -20.06760000   -32.30000000
  108.64560000   -20.05380000   -27.60000000
  108.62310000   -20.03920000   -26.80000000
  108.60060000   -20.02440000   -28.80000000
  108.57810000   -20.00970000   -29.90000000
  108.55550000   -19.99490000   -30.00000000
  108.53300000   -19.98020000   -30.30000000
  108.51050000   -19.96540000   -31.30000000
  108.48840000   -19.95090000   -31.50000000
  108.46630000   -19.93640000   -33.60000000
  108.44410000   -19.92190000   -35.80000000
  108.42200000   -19.90740000   -38.00000000
  108.40020000   -19.89280000   -37.00000000
  108.37940000   -19.87740000   -38.00000000
  108.35860000   -19.86200000   -37.30000000
  108.33780000   -19.84660000   -40.30000000
  108.31700000   -19.83120000   -42.30000000
  108.29620000   -19.81580000   -43.50000000
  108.27540000   -19.80040000   -43.50000000
  108.25460000   -19.78500000   -44.60000000
  108.23380000   -19.76960000   -45.80000000
  108.21300000   -19.75420000   -45.80000000
  108.19200000   -19.73890000   -46.80000000
  108.17050000   -19.72400000   -45.80000000
  108.14900000   -19.70920000   -45.00000000
  108.12750000   -19.69430000   -45.10000000
  108.08410000   -19.66430000   -47.00000000
  108.06230000   -19.64930000   -47.10000000
  107.94920000   -19.58980000   -42.30000000
  107.92640000   -19.57840000   -45.60000000
  107.90370000   -19.56690000   -48.00000000
  107.88090000   -19.55540000   -48.30000000
  107.85820000   -19.54400000   -50.60000000
  107.78990000   -19.50960000   -49.60000000
  107.76720000   -19.49810000   -52.00000000
  107.74440000   -19.48670000   -52.30000000
  107.32110000   -19.72610000   -42.50000000
  107.33270000   -19.70810000   -42.30000000
  107.34440000   -19.69000000   -41.30000000
  107.35600000   -19.67190000   -39.30000000
  107.36810000   -19.65340000   -36.60000000
  107.38040000   -19.63460000   -37.50000000
  107.39270000   -19.61590000   -38.50000000
  107.40500000   -19.59720000   -40.30000000
  107.41730000   -19.57850000   -40.30000000
  107.42950000   -19.55970000   -40.30000000
  107.44180000   -19.54100000   -40.10000000
  107.45410000   -19.52230000   -40.10000000
  107.46640000   -19.50360000   -39.00000000
  107.47880000   -19.48690000   -37.80000000
  107.49110000   -19.47080000   -36.80000000
  107.50350000   -19.45470000   -37.00000000
  107.51420000   -19.44080000   -40.30000000
  107.52490000   -19.42690000   -39.50000000
  107.53560000   -19.41290000   -38.60000000
  107.54630000   -19.39900000   -38.80000000
  107.55700000   -19.38510000   -39.00000000
  107.53720000   -19.47540000   -40.30000000
  107.52560000   -19.48890000   -40.00000000
  107.51410000   -19.50240000   -39.80000000
  107.50250000   -19.51590000   -40.50000000
  107.49090000   -19.52950000   -40.30000000
  107.47940000   -19.54300000   -40.00000000
  107.46780000   -19.55650000   -39.80000000
  107.45620000   -19.57000000   -38.60000000
  107.44470000   -19.58350000   -37.50000000
  107.43310000   -19.59700000   -37.30000000
  107.42150000   -19.61130000   -37.60000000
  107.40960000   -19.62880000   -37.60000000
  107.39780000   -19.64620000   -37.60000000
  107.38600000   -19.66360000   -37.60000000
  107.37420000   -19.68110000   -37.60000000
  107.36240000   -19.69850000   -37.60000000
  107.35050000   -19.71590000   -37.60000000
  107.33870000   -19.73340000   -37.60000000
  107.32690000   -19.75080000   -37.60000000
  107.25120000   -19.81430000   -32.80000000
  107.22970000   -19.82700000   -32.50000000
  107.20820000   -19.83970000   -32.10000000
  107.18670000   -19.85230000   -31.90000000
  107.16520000   -19.86500000   -31.60000000
  107.14370000   -19.87770000   -31.30000000
  107.12220000   -19.89030000   -31.10000000
  107.10070000   -19.90300000   -31.80000000
  107.07930000   -19.91720000   -32.30000000
  107.05790000   -19.93150000   -33.10000000
  107.03650000   -19.94570000   -34.00000000
  107.01510000   -19.96000000   -32.80000000
  106.99380000   -19.97420000   -33.60000000
  106.97240000   -19.98840000   -34.50000000
  106.95100000   -20.00270000   -33.30000000
  106.92960000   -20.01690000   -33.10000000
  106.90850000   -20.03090000   -34.10000000
  106.88750000   -20.04490000   -34.00000000
  106.86640000   -20.05900000   -33.80000000
  106.84490000   -20.07330000   -34.50000000
  106.82350000   -20.08750000   -35.30000000
  106.80200000   -20.10180000   -34.30000000
  106.78050000   -20.11610000   -34.00000000
  106.75900000   -20.13040000   -31.90000000
  106.73760000   -20.14470000   -30.80000000
  106.71610000   -20.15900000   -31.60000000
  106.69460000   -20.17330000   -30.40000000
  106.67310000   -20.18750000   -31.30000000
  106.65170000   -20.20180000   -31.10000000
  106.62990000   -20.21640000   -32.60000000
  106.60810000   -20.23130000   -33.80000000
  106.58620000   -20.24670000   -34.60000000
  106.56430000   -20.26210000   -35.50000000
  106.54240000   -20.27740000   -37.50000000
  106.52060000   -20.29280000   -37.30000000
  106.49870000   -20.30820000   -36.30000000
  106.47680000   -20.32360000   -35.10000000
  106.45520000   -20.33880000   -35.50000000
  106.43350000   -20.35400000   -35.30000000
  106.41170000   -20.36940000   -35.50000000
  106.26410000   -20.47480000   -31.10000000
  106.24340000   -20.48960000   -33.00000000
  106.22270000   -20.50440000   -33.80000000
  106.20200000   -20.51950000   -35.00000000
  106.18120000   -20.53480000   -36.00000000
  106.16040000   -20.55010000   -35.80000000
  106.13960000   -20.56540000   -35.80000000
  106.11890000   -20.58080000   -34.60000000
  106.09810000   -20.59610000   -33.60000000
  106.07750000   -20.61140000   -31.80000000
  106.05700000   -20.62690000   -30.80000000
  106.03650000   -20.64240000   -30.60000000
  106.01600000   -20.65780000   -31.50000000
  105.99540000   -20.67330000   -33.50000000
  105.97490000   -20.68870000   -34.50000000
  105.95440000   -20.70420000   -35.30000000
  105.93390000   -20.71960000   -35.30000000
  105.91340000   -20.73510000   -35.30000000
  105.89290000   -20.75050000   -35.10000000
  105.87230000   -20.76600000   -36.00000000
  105.85230000   -20.78240000   -34.80000000
  105.81230000   -20.81510000   -34.80000000
  105.79230000   -20.83150000   -36.60000000
  105.77230000   -20.84790000   -37.60000000
  105.75230000   -20.86430000   -38.60000000
  105.73230000   -20.88060000   -38.60000000
  105.71260000   -20.89680000   -37.00000000
  105.69280000   -20.91310000   -36.00000000
  105.67300000   -20.92930000   -35.00000000
  105.65330000   -20.94550000   -35.00000000
  105.63350000   -20.96170000   -34.00000000
  105.61380000   -20.97750000   -31.60000000
  105.59460000   -20.99150000   -31.50000000
  105.57530000   -21.00550000   -31.30000000
  105.55610000   -21.01950000   -33.30000000
  105.53680000   -21.03350000   -36.00000000
  105.51760000   -21.04750000   -37.80000000
  105.49830000   -21.06150000   -41.60000000
  105.47910000   -21.07550000   -43.50000000
  105.45980000   -21.08950000   -43.30000000
  105.44060000   -21.10350000   -43.30000000
  105.42130000   -21.11770000   -42.80000000
  105.40220000   -21.13270000   -43.80000000
  105.38300000   -21.14770000   -43.60000000
  105.36370000   -21.16270000   -44.80000000
  105.34440000   -21.17780000   -43.80000000
  105.32500000   -21.19290000   -44.80000000
  105.30570000   -21.20800000   -41.60000000
  105.28640000   -21.22310000   -38.60000000
  105.26710000   -21.23820000   -36.60000000
  105.24780000   -21.25330000   -33.50000000
  105.22780000   -21.26840000   -34.30000000
  105.20680000   -21.28340000   -33.30000000
  105.18590000   -21.29850000   -32.10000000
  105.14230000   -21.32580000   -24.60000000
  105.12020000   -21.33880000   -19.50000000
  105.09810000   -21.35190000   -14.40000000
  105.07600000   -21.36490000    -9.30000000
  105.05380000   -21.37800000    -3.10000000
  105.03130000   -21.39060000     0.60000000
  105.00850000   -21.40310000     3.80000000
  104.98570000   -21.41560000     7.00000000
  104.96290000   -21.42800000     9.20000000
  104.94030000   -21.43970000     9.10000000
  104.91770000   -21.45120000     9.40000000
  104.89510000   -21.46260000     9.70000000
  104.87250000   -21.47410000     8.40000000
  104.85000000   -21.48560000     7.70000000
  104.82740000   -21.49710000     7.00000000
  104.80480000   -21.50850000     6.30000000
  104.78220000   -21.52000000     5.60000000
  104.75970000   -21.53150000     5.90000000
  104.73780000   -21.54160000     6.90000000
  104.71610000   -21.55160000     6.90000000
  104.69450000   -21.56160000     7.30000000
  104.67280000   -21.57150000     7.60000000
  104.65120000   -21.58150000     8.00000000
  104.62900000   -21.59170000     6.90000000
  104.60670000   -21.60200000     8.20000000
  104.58440000   -21.61230000    10.60000000
  104.54050000   -21.63530000    12.10000000
  104.51860000   -21.64720000    14.40000000
  104.49670000   -21.65910000    16.50000000
  104.47670000   -21.67070000    26.00000000
  104.45790000   -21.68210000    27.30000000
  104.43910000   -21.69360000    28.50000000
  104.42030000   -21.70500000    32.80000000
  104.40150000   -21.71650000    34.00000000
  104.38270000   -21.72790000    35.30000000
  104.36390000   -21.73930000    36.60000000
  104.34510000   -21.75080000    38.80000000
  104.32620000   -21.76220000    39.10000000
  104.30740000   -21.77370000    40.50000000
  104.28860000   -21.78510000    44.60000000
  104.26980000   -21.79650000    45.00000000
  104.25100000   -21.80800000    46.30000000
  104.20230000   -21.84780000    38.00000000
  104.18610000   -21.86100000    39.10000000
  104.16990000   -21.87430000    38.30000000
  104.15370000   -21.88760000    37.50000000
  104.13750000   -21.90080000    36.60000000
  104.12120000   -21.91410000    36.80000000
  104.10500000   -21.92740000    37.00000000
  104.08880000   -21.94060000    39.10000000
  104.04400000   -21.97820000    22.50000000
  104.02160000   -21.99690000    14.40000000
  103.99930000   -22.01570000    10.40000000
  103.97690000   -22.03450000     4.20000000
  103.95450000   -22.05320000    -4.10000000
  103.93210000   -22.07200000    -7.20000000
  103.90970000   -22.09080000    -6.40000000
  103.89250000   -22.10490000     5.00000000
  103.87540000   -22.11900000     9.10000000
  103.85820000   -22.13310000    12.10000000
  103.84100000   -22.14720000    17.10000000
  103.82380000   -22.16130000    17.30000000
  103.80660000   -22.17540000    12.40000000
  103.77050000   -22.20480000     9.30000000
  103.75190000   -22.22000000     9.40000000
  103.73330000   -22.23510000     9.40000000
  103.71460000   -22.25030000     9.40000000
  103.69600000   -22.26540000    10.40000000
  103.57700000   -22.20870000    12.40000000
  103.56070000   -22.18910000    15.70000000
  103.54450000   -22.16950000    18.80000000
  103.52820000   -22.14990000    20.10000000
  103.51200000   -22.13040000    22.30000000
  103.49570000   -22.11080000    21.50000000
  103.47940000   -22.09120000    19.80000000
  103.46320000   -22.07160000    18.10000000
  103.44690000   -22.05210000    17.30000000
  103.43070000   -22.03250000    13.70000000
  103.41440000   -22.01290000    11.90000000
  103.39770000   -21.99310000     6.90000000
  103.38090000   -21.97330000     2.10000000
  103.36410000   -21.95340000     0.40000000
  103.34730000   -21.93360000    -6.40000000
  103.33040000   -21.91370000   -10.20000000
  103.31370000   -21.89400000   -12.80000000
  103.29700000   -21.87420000   -13.40000000
  103.28030000   -21.85440000   -13.30000000
  103.26360000   -21.83470000   -13.90000000
  103.24690000   -21.81490000   -13.80000000
  103.23020000   -21.79520000   -15.40000000
  103.21350000   -21.77540000   -17.30000000
  103.19680000   -21.75570000   -17.90000000
  103.18010000   -21.73590000   -22.60000000
  103.16330000   -21.71620000   -25.40000000
  103.14660000   -21.69640000   -26.10000000
  103.12990000   -21.67670000   -23.90000000
  103.11320000   -21.65690000   -21.80000000
  103.09650000   -21.63720000   -22.50000000
  103.07980000   -21.61740000   -33.10000000
  103.06310000   -21.59760000   -39.80000000
  103.04640000   -21.57790000   -46.50000000
  103.02970000   -21.55810000   -42.30000000
  102.99590000   -21.51800000   -35.50000000
  102.97900000   -21.49800000   -30.40000000
  102.96210000   -21.47790000   -26.30000000
  102.94520000   -21.45790000   -22.00000000
  102.92830000   -21.43780000   -25.80000000
  102.91140000   -21.41780000   -32.50000000
  102.89450000   -21.39770000   -38.10000000
  102.87760000   -21.37770000   -43.80000000
  102.86060000   -21.35760000   -46.50000000
  102.84380000   -21.33750000   -45.30000000
  102.82690000   -21.31750000   -45.00000000
  102.81000000   -21.29740000   -41.80000000
  102.79310000   -21.27740000   -40.60000000
  102.77620000   -21.25730000   -36.50000000
  102.75920000   -21.23730000   -33.30000000
  102.74230000   -21.21720000   -29.00000000
  102.72540000   -21.19720000   -26.80000000
  102.70890000   -21.17760000   -25.90000000
  102.69240000   -21.15800000   -25.80000000
  102.67580000   -21.13840000   -25.50000000
  102.65930000   -21.11880000   -25.30000000
  102.64360000   -21.09920000   -22.60000000
  102.62820000   -21.07970000   -22.40000000
  102.61270000   -21.06020000   -22.30000000
  102.59730000   -21.04070000   -22.10000000
  102.58180000   -21.02110000   -21.90000000
  102.56640000   -21.00160000   -20.80000000
  102.55100000   -20.98210000   -20.50000000
  102.53550000   -20.96260000   -20.30000000
  102.52010000   -20.94300000   -21.10000000
  102.50460000   -20.92350000   -20.90000000
  102.48920000   -20.90400000   -21.80000000
  102.47430000   -20.88380000   -22.10000000
  102.45950000   -20.86350000   -23.90000000
  102.44570000   -20.84400000   -23.30000000
  102.43180000   -20.82450000   -25.10000000
  102.40220000   -20.78340000   -26.10000000
  102.38730000   -20.76280000   -26.80000000
  102.37250000   -20.74230000   -27.60000000
  102.35750000   -20.72190000   -27.80000000
  102.34260000   -20.70170000   -27.30000000
  102.32780000   -20.68160000   -27.00000000
  102.31290000   -20.66140000   -26.80000000
  102.29930000   -20.64230000   -23.10000000
  102.28630000   -20.62390000   -23.00000000
  102.27340000   -20.60550000   -22.90000000
  102.26050000   -20.58710000   -23.80000000
  102.24760000   -20.56870000   -23.80000000
  102.23470000   -20.55030000   -23.60000000
  102.22180000   -20.53190000   -22.50000000
  102.20890000   -20.51350000   -26.30000000
  102.19600000   -20.49510000   -33.30000000
  102.18280000   -20.47630000   -40.30000000
  102.16690000   -20.45400000   -43.80000000
  102.15100000   -20.43180000   -45.50000000
  102.13510000   -20.40950000   -46.10000000
  102.11920000   -20.38730000   -49.80000000
  102.10330000   -20.36500000   -50.50000000
  102.05570000   -20.29820000   -52.50000000
  102.03980000   -20.27590000   -49.30000000
  102.02450000   -20.25450000   -46.30000000
  101.99420000   -20.21170000   -41.80000000
  101.97900000   -20.19040000   -38.60000000
  101.96380000   -20.16900000   -36.50000000
  101.94950000   -20.14870000   -26.80000000
  101.93700000   -20.13090000   -23.80000000
  101.92460000   -20.11310000   -22.60000000
  101.91220000   -20.09530000   -25.60000000
  101.89980000   -20.07740000   -25.50000000
  101.88740000   -20.05960000   -26.50000000
  101.87500000   -20.04180000   -27.40000000
  101.86260000   -20.02400000   -26.40000000
  101.85010000   -20.00620000   -25.30000000
  101.83770000   -19.98840000   -26.30000000
  101.82530000   -19.97060000   -27.30000000
  101.81070000   -19.95060000   -32.30000000
  101.79490000   -19.92920000   -32.00000000
  101.77910000   -19.90790000   -32.80000000
  101.76340000   -19.88670000   -31.10000000
  101.74780000   -19.86560000   -29.90000000
  101.73220000   -19.84450000   -32.80000000
  101.71650000   -19.82340000   -34.50000000
  101.70090000   -19.80230000   -36.30000000
  101.68530000   -19.78120000   -39.00000000
  101.67030000   -19.76080000   -33.50000000
  101.65610000   -19.74150000   -32.30000000
  101.64190000   -19.72230000   -32.30000000
  101.62660000   -19.70150000   -37.50000000
  101.60940000   -19.67910000   -41.10000000
  101.59130000   -19.65660000   -40.80000000
  101.57320000   -19.63400000   -42.50000000
  101.54120000   -19.59440000   -38.10000000
  101.52530000   -19.57460000   -39.00000000
  101.50880000   -19.52960000   -43.30000000
  101.50200000   -19.50660000   -43.00000000
  101.49060000   -19.47030000   -42.50000000
  101.47790000   -19.42860000   -43.00000000
  101.47090000   -19.40500000   -40.60000000
  101.46390000   -19.38130000   -39.30000000
  101.10180000   -19.33090000   -38.60000000
  101.08810000   -19.31620000   -38.80000000
  101.07450000   -19.30150000   -38.00000000
  101.05900000   -19.28430000   -41.30000000
  101.04360000   -19.26710000   -40.30000000
  101.02810000   -19.24980000   -39.30000000
  101.01250000   -19.23180000   -39.30000000
  100.99670000   -19.21270000   -38.30000000
  100.98080000   -19.19360000   -37.30000000
  100.96500000   -19.17440000   -37.10000000
  100.94920000   -19.15530000   -37.00000000
  100.93330000   -19.13620000   -37.00000000
  100.91750000   -19.11700000   -37.80000000
  100.90170000   -19.09790000   -37.80000000
  100.87000000   -19.05960000   -38.60000000
  100.85450000   -19.04060000   -36.80000000
  100.83950000   -19.02180000   -36.60000000
  100.82480000   -19.00340000   -35.80000000
  100.81010000   -18.98500000   -35.80000000
  100.79540000   -18.96660000   -36.80000000
  100.78070000   -18.94830000   -38.80000000
  100.76600000   -18.92990000   -39.60000000
  100.75130000   -18.91150000   -40.60000000
  100.73660000   -18.89310000   -40.60000000
  100.72190000   -18.87470000   -41.60000000
  100.70720000   -18.85640000   -41.50000000
  100.69250000   -18.83840000   -40.60000000
  100.67780000   -18.82070000   -39.60000000
  100.66310000   -18.80300000   -38.60000000
  100.64850000   -18.78540000   -36.80000000
  100.63380000   -18.76770000   -36.80000000
  100.61800000   -18.74930000   -38.30000000
  100.60190000   -18.73080000   -37.10000000
  100.58580000   -18.71220000   -35.10000000
  100.56970000   -18.69360000   -32.10000000
  100.55350000   -18.67500000   -30.30000000
  100.53740000   -18.65640000   -27.30000000
  100.52120000   -18.63770000   -24.30000000
  100.50640000   -18.61950000   -18.30000000
  100.49200000   -18.60140000   -16.30000000
  100.47750000   -18.58330000   -17.30000000
  100.46310000   -18.56520000   -19.30000000
  100.44860000   -18.54710000   -26.30000000
  100.43420000   -18.52890000   -27.30000000
  100.41970000   -18.51080000   -28.30000000
  100.40530000   -18.49270000   -28.30000000
  100.39080000   -18.47460000   -29.30000000
  100.37640000   -18.45650000   -28.30000000
  100.36190000   -18.43840000   -26.30000000
  100.34750000   -18.42030000   -27.30000000
  100.33310000   -18.40210000   -26.30000000
  100.31860000   -18.38400000   -29.30000000
  100.30420000   -18.36590000   -31.30000000
  100.28950000   -18.34750000   -32.80000000
  100.27600000   -18.32960000   -32.10000000
  100.26240000   -18.31160000   -31.30000000
  100.24890000   -18.29370000   -31.30000000
  100.23530000   -18.27580000   -31.80000000
  100.22180000   -18.25780000   -28.80000000
  100.20830000   -18.23990000   -26.90000000
  100.19470000   -18.22200000   -23.90000000
  100.18120000   -18.20400000   -22.00000000
  100.16760000   -18.18610000   -23.00000000
  100.15410000   -18.16820000   -25.00000000
  100.14030000   -18.15010000   -26.30000000
  100.12630000   -18.13180000   -29.30000000
  100.11230000   -18.11360000   -29.30000000
  100.09830000   -18.09530000   -30.30000000
  100.08430000   -18.07710000   -31.30000000
  100.07030000   -18.05880000   -30.30000000
  100.05630000   -18.04060000   -29.30000000
  100.04260000   -18.02270000   -28.80000000
  100.02890000   -18.00480000   -27.80000000
  100.01520000   -17.98700000   -28.80000000
  100.00150000   -17.96910000   -30.80000000
   99.98770000   -17.95120000   -31.80000000
   99.97390000   -17.93280000   -33.30000000
   99.96010000   -17.91430000   -32.30000000
   99.94620000   -17.89580000   -32.30000000
   99.93240000   -17.87730000   -30.30000000
   99.91850000   -17.85870000   -26.40000000
   99.90470000   -17.84020000   -26.40000000
   99.89080000   -17.82170000   -25.40000000
   99.87700000   -17.80320000   -22.40000000
   99.86310000   -17.78410000   -20.60000000
   99.84920000   -17.76490000   -19.60000000
   99.83530000   -17.74580000   -18.60000000
   99.82130000   -17.72800000   -18.30000000
   99.80720000   -17.71020000   -18.30000000
   99.79320000   -17.69220000   -17.30000000
   99.77910000   -17.67420000   -19.30000000
   99.76510000   -17.65620000   -20.30000000
   99.75110000   -17.63830000   -22.30000000
   99.73710000   -17.62030000   -26.30000000
   99.72320000   -17.60210000   -28.40000000
   99.70960000   -17.58370000   -29.40000000
   99.69590000   -17.56530000   -31.50000000
   99.68260000   -17.54760000   -30.40000000
   99.66940000   -17.53000000   -30.50000000
   99.65650000   -17.51200000   -29.60000000
   99.64370000   -17.49350000   -30.60000000
   99.61810000   -17.45670000   -33.10000000
   99.60540000   -17.43830000   -35.30000000
   99.59260000   -17.41990000   -35.30000000
   99.57980000   -17.40150000   -38.30000000
   99.56700000   -17.38310000   -38.30000000
   99.55400000   -17.36430000   -40.50000000
   99.54080000   -17.34490000   -42.50000000
   99.52760000   -17.32550000   -44.50000000
   99.51430000   -17.30610000   -45.50000000
   99.50110000   -17.28680000   -47.50000000
   99.48790000   -17.26740000   -50.30000000
   99.47460000   -17.24800000   -53.30000000
   99.46140000   -17.22860000   -55.30000000
   99.44820000   -17.20920000   -56.30000000
   99.43490000   -17.18990000   -58.30000000
   99.42170000   -17.17050000   -60.30000000
   99.40850000   -17.15110000   -62.30000000
   99.39530000   -17.13170000   -64.30000000
   99.38200000   -17.11230000   -65.30000000
   99.36880000   -17.09290000   -68.30000000
   99.32910000   -17.03480000   -70.30000000
   99.31590000   -17.01540000   -71.40000000
   99.30270000   -16.99600000   -72.40000000
   99.28950000   -16.97670000   -73.40000000
   99.27620000   -16.95730000   -73.40000000
   99.26300000   -16.93790000   -73.40000000
   99.24980000   -16.91850000   -74.40000000
   99.23660000   -16.89910000   -75.40000000
   99.22320000   -16.87950000   -77.80000000
   99.20940000   -16.85940000   -77.80000000
   99.19570000   -16.83940000   -77.80000000
   99.18190000   -16.81930000   -77.80000000
   99.16820000   -16.79930000   -76.80000000
   99.15450000   -16.77920000   -74.80000000
   99.14070000   -16.75920000   -73.80000000
   99.12700000   -16.73920000   -71.80000000
   99.11320000   -16.71910000   -70.80000000
   99.09950000   -16.69910000   -69.80000000
   99.08570000   -16.67900000   -65.80000000
