   55.81830000    13.82160000    -4.00000000
   55.83770000    13.84470000    -1.40000000
   55.85640000    13.86770000    -4.90000000
   55.87450000    13.89060000    -6.90000000
   55.89250000    13.91340000    -5.80000000
   55.91060000    13.93630000    -2.60000000
   55.92850000    13.96020000     0.90000000
   55.94600000    13.98570000    11.10000000
   55.96340000    14.01120000    19.00000000
   55.98100000    14.03620000    22.80000000
   55.99880000    14.06060000    19.80000000
   56.01660000    14.08510000    22.80000000
   56.03430000    14.10950000    28.80000000
   56.05120000    14.13200000    32.50000000
   56.06800000    14.15450000    34.60000000
   56.08490000    14.17700000    34.80000000
   56.10170000    14.19950000    23.50000000
   56.11890000    14.22180000    18.80000000
   56.13660000    14.24360000    19.80000000
   56.15440000    14.26550000    25.90000000
   56.17210000    14.28740000    33.10000000
   56.19000000    14.30930000    39.00000000
   56.20800000    14.33130000    37.00000000
   56.22600000    14.35330000    37.00000000
   56.24390000    14.37530000    47.30000000
   56.26190000    14.39720000    52.50000000
   56.27990000    14.41920000    41.30000000
   56.29790000    14.44120000    30.30000000
   56.31610000    14.46330000     7.30000000
   56.33420000    14.48540000   -19.30000000
   56.35240000    14.50750000   -31.30000000
   56.37050000    14.52960000   -30.30000000
   56.38870000    14.55170000   -28.10000000
   56.40680000    14.57390000     1.30000000
   56.42500000    14.59600000    17.60000000
   56.44310000    14.61810000    28.80000000
   56.46130000    14.64020000    44.10000000
   56.47940000    14.66230000    53.30000000
   56.49760000    14.68440000    47.30000000
   56.51580000    14.70660000    40.10000000
   56.53390000    14.72870000    39.10000000
   56.55210000    14.75080000    37.30000000
   56.57020000    14.77290000    30.10000000
   56.58840000    14.79500000    27.10000000
   56.60650000    14.81710000    30.30000000
   56.62470000    14.83920000    29.30000000
   56.64300000    14.86150000    25.50000000
   56.66130000    14.88380000    23.50000000
   56.67970000    14.90610000    20.40000000
   56.69800000    14.92840000    22.50000000
   56.71630000    14.95070000    28.60000000
   56.73470000    14.97300000    33.80000000
   56.75300000    14.99530000    36.80000000
   56.78970000    15.03980000    46.00000000
   56.80800000    15.06210000    37.80000000
   56.82710000    15.08350000    31.50000000
   56.84740000    15.10350000    23.50000000
   56.88480000    15.14010000    12.90000000
   56.90470000    15.15970000     9.90000000
   56.96340000    15.21730000    23.40000000
   56.98380000    15.23730000    28.60000000
   57.00410000    15.25730000    24.60000000
   57.02450000    15.27760000    18.40000000
   57.06400000    15.31790000    10.40000000
   57.08420000    15.33860000    17.60000000
   57.10440000    15.35920000    21.80000000
   57.12450000    15.38020000    23.10000000
   57.14440000    15.40130000    26.30000000
   57.16440000    15.42240000    21.10000000
   57.18430000    15.44340000    14.20000000
   57.20350000    15.46570000     8.40000000
   57.22240000    15.48820000     9.40000000
   57.24130000    15.51070000    17.50000000
   57.26030000    15.53320000    30.60000000
   57.27920000    15.55570000    41.80000000
   57.29810000    15.57830000    37.60000000
   57.31700000    15.60080000    30.50000000
   57.33600000    15.62330000    26.40000000
   57.35490000    15.64580000    12.30000000
   57.37380000    15.66830000     3.00000000
   57.39180000    15.68990000    -3.80000000
   57.41010000    15.71180000    -7.90000000
   57.42840000    15.73370000    -8.00000000
   57.44670000    15.75560000    -8.00000000
   57.46500000    15.77750000   -10.90000000
   57.48330000    15.79940000   -13.10000000
   57.50160000    15.82130000   -14.10000000
   57.51990000    15.84320000   -14.10000000
   57.53820000    15.86510000   -14.20000000
   57.55640000    15.88700000   -14.20000000
   57.57470000    15.90890000   -14.20000000
   57.59300000    15.93080000   -16.30000000
   57.61130000    15.95270000   -17.30000000
   57.62960000    15.97460000   -18.30000000
   57.64790000    15.99650000   -17.30000000
   57.66620000    16.01840000   -16.30000000
   57.68530000    16.04100000   -15.10000000
   57.70500000    16.06390000   -16.10000000
   57.72460000    16.08690000   -16.30000000
   57.74430000    16.10990000   -13.40000000
   57.76400000    16.13290000   -10.40000000
   57.78370000    16.15580000    -4.40000000
   57.80330000    16.17880000     2.80000000
   57.82300000    16.20180000    10.80000000
   57.88200000    16.27070000    16.80000000
   57.90160000    16.29150000     8.00000000
   57.92100000    16.30890000     2.00000000
   57.94050000    16.32640000    -0.90000000
   57.95990000    16.34380000     0.40000000
   57.97940000    16.36130000     4.70000000
   57.99880000    16.37880000    11.90000000
   58.01820000    16.39620000    19.10000000
   58.03770000    16.41370000    24.30000000
   58.05710000    16.43110000    23.50000000
   58.07710000    16.44920000    18.90000000
   58.09720000    16.46730000     9.90000000
   58.11720000    16.48530000    -0.20000000
   58.13730000    16.50340000   -12.20000000
   58.15730000    16.52150000   -21.30000000
   58.17730000    16.53960000   -28.10000000
   58.19740000    16.55760000   -33.10000000
   58.21740000    16.57570000   -35.00000000
   58.23750000    16.59380000   -34.80000000
   58.25750000    16.61190000   -36.80000000
   58.27750000    16.62990000   -44.80000000
   58.29760000    16.64800000   -50.80000000
   58.31760000    16.66610000   -53.60000000
   58.33770000    16.68420000   -53.50000000
   58.35870000    16.70470000   -49.00000000
   58.37980000    16.72520000   -48.00000000
   58.40090000    16.74570000   -45.00000000
   58.42200000    16.76620000   -41.00000000
   58.44440000    16.78810000   -31.80000000
   58.46680000    16.81000000   -25.80000000
   58.48900000    16.83170000   -21.50000000
   58.51060000    16.85250000   -19.50000000
   58.53230000    16.87340000   -17.50000000
   58.55390000    16.89420000   -13.60000000
   58.57390000    16.91370000   -13.40000000
   58.59350000    16.93350000   -10.40000000
   58.61320000    16.95320000    -6.30000000
   58.63280000    16.97300000    -2.10000000
   58.65240000    16.99270000    -1.10000000
   58.67210000    17.01250000     0.90000000
   58.69170000    17.03220000     2.00000000
   58.71070000    17.05190000     1.80000000
   58.72940000    17.07150000     3.80000000
   58.74810000    17.09110000     5.90000000
   58.76690000    17.11070000     8.00000000
   58.78560000    17.13040000     9.90000000
   58.83290000    17.06450000    17.10000000
   58.84810000    17.04070000    18.30000000
   58.86340000    17.01690000    20.50000000
   58.87860000    16.99310000    21.80000000
   58.89380000    16.96930000    22.90000000
   58.90900000    16.94540000    25.10000000
   58.92430000    16.92160000    26.30000000
   58.94730000    16.88420000    26.60000000
   58.95810000    16.86630000    27.40000000
   58.96900000    16.84850000    28.30000000
   58.97980000    16.83060000    27.30000000
   58.99070000    16.81280000    25.00000000
   59.00150000    16.79490000    24.90000000
   59.01240000    16.77710000    24.80000000
   59.02320000    16.75930000    24.80000000
   59.03400000    16.74140000    24.50000000
   58.98100000    16.65400000    18.30000000
   58.96460000    16.63310000    12.30000000
   58.94820000    16.61220000     8.20000000
   58.93170000    16.59140000     4.20000000
   58.91530000    16.57050000     1.10000000
   58.89880000    16.54960000    -3.00000000
   58.88240000    16.52880000    -6.10000000
   58.86590000    16.50790000   -11.20000000
   58.84950000    16.48700000   -15.20000000
   58.83310000    16.46610000   -18.30000000
   58.81660000    16.44530000   -20.30000000
   58.80020000    16.42440000   -20.30000000
   58.78370000    16.40350000   -18.30000000
   58.76730000    16.38260000   -20.30000000
   58.75080000    16.36170000   -26.40000000
   58.73440000    16.34080000   -33.50000000
   58.71800000    16.31990000   -39.60000000
   58.70150000    16.29900000   -44.80000000
   58.68510000    16.27810000   -41.60000000
   58.66860000    16.25720000   -40.60000000
   58.65220000    16.23630000   -36.50000000
   58.63570000    16.21540000   -28.40000000
   58.61930000    16.19450000   -17.30000000
   58.60280000    16.17360000     1.00000000
   58.58640000    16.15270000    10.20000000
   58.57000000    16.13180000    13.20000000
   58.55510000    16.11380000    -4.40000000
   58.54070000    16.09640000   -17.80000000
   58.52630000    16.07910000   -26.00000000
   58.51190000    16.06170000   -31.30000000
   58.49750000    16.04430000   -32.50000000
   58.48310000    16.02700000   -31.60000000
   58.46850000    16.00940000   -29.30000000
   58.45390000    15.99180000   -24.40000000
   58.43930000    15.97420000   -24.60000000
   58.42330000    15.95260000   -25.80000000
   58.40700000    15.93000000   -25.80000000
   58.38270000    15.89430000   -24.30000000
   58.37080000    15.87670000   -25.50000000
   58.35880000    15.85910000   -26.80000000
   58.34690000    15.84150000   -25.90000000
   58.33490000    15.82380000   -26.10000000
   58.32300000    15.80620000   -25.30000000
   58.31100000    15.78860000   -24.40000000
   58.29910000    15.77100000   -23.60000000
   58.28720000    15.75340000   -23.80000000
   58.27480000    15.73540000   -24.60000000
   58.26180000    15.71670000   -20.80000000
   58.24880000    15.69810000   -15.80000000
   58.23100000    15.67530000   -12.70000000
   58.21320000    15.65250000    -7.50000000
   58.19540000    15.62970000    -7.50000000
   58.17750000    15.60680000    -4.40000000
   58.15970000    15.58400000    -2.30000000
   58.14190000    15.56120000    -1.30000000
   58.12410000    15.53840000     3.00000000
   58.10620000    15.51660000     4.70000000
   58.08830000    15.49900000     1.40000000
   58.07040000    15.48140000    -3.00000000
   58.05240000    15.46380000    -7.30000000
   58.03450000    15.44620000   -10.40000000
   58.01660000    15.42860000   -12.70000000
   57.99860000    15.41100000   -14.90000000
   57.98070000    15.39340000   -14.20000000
   57.96270000    15.37570000   -12.30000000
   57.94480000    15.35810000   -10.40000000
   57.92690000    15.34050000    -9.70000000
   57.90890000    15.32290000    -1.80000000
   57.89090000    15.30520000     2.00000000
   57.87340000    15.28560000     7.50000000
   57.85610000    15.26550000    11.40000000
   57.83870000    15.24550000    11.30000000
   57.82130000    15.22540000     8.20000000
   57.80390000    15.20530000     5.10000000
   57.78660000    15.18520000     5.00000000
   57.76920000    15.16520000     4.90000000
   57.75180000    15.14510000    10.80000000
   57.73440000    15.12500000    17.80000000
   57.71710000    15.10490000    23.80000000
   57.69970000    15.08490000    27.80000000
   57.68230000    15.06480000    28.60000000
   57.66490000    15.04470000    26.40000000
   57.64760000    15.02460000    25.30000000
   57.63020000    15.00460000    23.30000000
   57.61280000    14.98450000    17.00000000
   57.59540000    14.96440000    10.90000000
   57.68130000    14.90800000    11.90000000
   57.70500000    14.89840000    11.40000000
   57.72880000    14.88880000    11.80000000
   57.75290000    14.87990000    16.60000000
   57.77760000    14.87200000    19.00000000
   57.80230000    14.86420000    20.40000000
   57.82700000    14.85640000    20.80000000
   57.85170000    14.84860000    20.00000000
   57.87640000    14.84080000    17.40000000
   57.90110000    14.83290000    13.70000000
   57.92580000    14.82510000     9.90000000
   57.95050000    14.81730000     5.30000000
   57.97520000    14.80950000     0.60000000
   58.00090000    14.80130000     0.40000000
   58.02590000    14.79210000    -4.40000000
   58.05080000    14.78270000    -7.10000000
   58.07570000    14.77330000    -7.70000000
   58.10060000    14.76390000    -8.20000000
   58.12550000    14.75450000   -10.80000000
   58.15030000    14.74510000   -13.40000000
   58.17520000    14.73560000   -13.90000000
   58.20010000    14.72620000   -14.60000000
   58.22500000    14.71680000   -13.10000000
   58.24980000    14.70740000   -10.70000000
   58.27470000    14.69800000    -5.20000000
   58.29960000    14.68850000    -0.70000000
   58.32450000    14.67910000     3.80000000
   58.34930000    14.66970000     6.40000000
   58.37420000    14.66030000    10.90000000
   58.39910000    14.65090000    13.30000000
   58.42400000    14.64150000    13.70000000
   58.44890000    14.63210000    13.10000000
   58.47370000    14.62330000    10.40000000
   58.49860000    14.61470000     6.80000000
   58.52350000    14.60610000     0.10000000
   58.54830000    14.59750000    -6.90000000
   58.57330000    14.58750000   -12.20000000
   58.59800000    14.57750000   -17.50000000
   58.62270000    14.56750000   -20.10000000
   58.64740000    14.55750000   -23.80000000
   58.67210000    14.54740000   -26.30000000
   58.69680000    14.53740000   -29.90000000
   58.72140000    14.52740000   -31.50000000
   58.74610000    14.51740000   -32.10000000
   58.77080000    14.50740000   -29.60000000
   58.79550000    14.49740000   -26.30000000
   58.82020000    14.48730000   -20.60000000
   58.84420000    14.47840000   -15.70000000
   58.86830000    14.46940000    -9.20000000
   58.89240000    14.46040000    -0.70000000
   58.91650000    14.45150000     9.90000000
   58.94060000    14.44250000    23.50000000
   58.96470000    14.43350000    41.10000000
   58.98880000    14.42460000    51.80000000
   59.01280000    14.41560000    55.10000000
   59.03660000    14.40670000    47.60000000
   59.06030000    14.39790000    36.80000000
   59.08410000    14.38900000    26.00000000
   59.10780000    14.38020000    16.30000000
   59.13160000    14.37130000     9.60000000
   59.15530000    14.36250000     8.00000000
   59.17910000    14.35360000     8.40000000
   59.20280000    14.34480000     8.80000000
   59.22660000    14.33590000     7.10000000
   59.25030000    14.32710000     1.30000000
   59.27410000    14.31820000    -4.50000000
   59.29780000    14.30940000    -8.20000000
   59.32160000    14.30050000    -9.80000000
   59.34530000    14.29170000   -10.40000000
   59.36910000    14.28280000    -6.00000000
   59.39180000    14.27430000    -4.10000000
   59.41460000    14.26580000     1.40000000
   59.43730000    14.25730000     9.90000000
   59.46020000    14.24870000    20.90000000
   59.48350000    14.23950000    30.40000000
   59.50680000    14.23030000    40.00000000
   59.53010000    14.22110000    51.50000000
   59.55340000    14.21190000    57.00000000
   59.57670000    14.20270000    57.50000000
   59.60000000    14.19350000    52.80000000
   59.62330000    14.18430000    46.00000000
   59.64660000    14.17510000    36.30000000
   59.66990000    14.16590000    27.50000000
   59.69320000    14.15670000    21.80000000
   59.71720000    14.14730000    19.30000000
   59.74180000    14.13790000    16.80000000
   59.76630000    14.12840000    14.10000000
   59.79090000    14.11900000    11.40000000
   59.81310000    14.11030000     7.60000000
   59.83760000    14.10090000     6.00000000
   59.86180000    14.09240000     3.30000000
   59.88580000    14.08420000     0.60000000
   59.90990000    14.07590000    -3.30000000
   59.93400000    14.06730000    -9.90000000
   59.95810000    14.05730000   -12.70000000
   59.98240000    14.04780000   -14.60000000
   60.00800000    14.04030000   -15.30000000
   60.03350000    14.03280000   -19.00000000
   60.05900000    14.02530000   -18.80000000
   60.17830000    13.98600000   -28.10000000
   60.20240000    13.97750000   -31.80000000
   60.22640000    13.96910000   -32.50000000
   60.25020000    13.96020000   -35.00000000
   60.27390000    13.95110000   -34.60000000
   60.29750000    13.94200000   -35.30000000
   60.32120000    13.93300000   -36.00000000
   60.34490000    13.92390000   -36.50000000
   60.36850000    13.91480000   -37.10000000
   60.39220000    13.90570000   -34.80000000
   60.41590000    13.89660000   -34.30000000
   60.43950000    13.88750000   -33.00000000
   60.46320000    13.87840000   -33.60000000
   60.48690000    13.86930000   -32.30000000
   60.51060000    13.86030000   -30.80000000
   60.53420000    13.85120000   -30.40000000
   60.55790000    13.84210000   -29.00000000
   60.58160000    13.83300000   -27.60000000
   60.60440000    13.82420000   -27.30000000
   60.62730000    13.81540000   -25.90000000
   60.65010000    13.80660000   -23.50000000
   60.67300000    13.79780000   -24.10000000
   60.69580000    13.78900000   -21.80000000
   60.71870000    13.78020000   -21.40000000
   60.74180000    13.77150000   -18.80000000
   60.76510000    13.76290000   -18.50000000
   60.78840000    13.75420000   -17.10000000
   60.81170000    13.74560000   -17.80000000
   60.83490000    13.73700000   -17.40000000
   60.85820000    13.72830000   -16.00000000
   60.88150000    13.71970000   -16.80000000
   60.90480000    13.71110000   -16.30000000
   60.92810000    13.70240000   -17.00000000
   60.95140000    13.69380000   -16.60000000
   60.97460000    13.68520000   -16.30000000
   60.99790000    13.67650000   -15.90000000
   61.02090000    13.66800000   -16.30000000
   61.04400000    13.65950000   -14.90000000
   61.06700000    13.65090000   -14.60000000
   61.08980000    13.64250000   -15.80000000
   61.11260000    13.63420000   -15.40000000
   61.13540000    13.62590000   -15.10000000
   61.15820000    13.61760000   -14.80000000
   61.18100000    13.60920000   -13.40000000
   61.20380000    13.60090000   -12.10000000
   61.22650000    13.59260000   -10.70000000
   61.24930000    13.58430000    -9.40000000
   61.27210000    13.57600000    -9.90000000
   61.29490000    13.56770000    -9.70000000
   61.31770000    13.55930000   -10.40000000
   61.34050000    13.55100000    -8.90000000
   61.36330000    13.54270000    -9.70000000
   61.38600000    13.53440000    -8.30000000
   61.40880000    13.52610000    -7.00000000
   61.43190000    13.51770000    -4.90000000
   61.45490000    13.50930000    -5.60000000
   61.47800000    13.50080000    -4.20000000
   61.50100000    13.49240000    -3.80000000
   61.52400000    13.48400000    -5.60000000
   61.54710000    13.47560000    -5.20000000
   61.57020000    13.46720000    -5.70000000
   61.59290000    13.45870000    -6.40000000
   61.61570000    13.45030000    -8.00000000
   61.63860000    13.44310000    -9.20000000
   61.66160000    13.43580000    -8.90000000
   61.68450000    13.42860000    -8.60000000
   61.70740000    13.42130000    -7.30000000
   61.73040000    13.41410000    -7.00000000
   61.75330000    13.40680000    -6.70000000
   61.77630000    13.39960000    -6.40000000
   61.79920000    13.39230000    -6.10000000
   61.82220000    13.38510000    -6.70000000
   61.84520000    13.37770000    -8.40000000
   61.86820000    13.37040000    -7.20000000
   61.89110000    13.36320000    -8.90000000
   61.91410000    13.35590000    -8.70000000
   61.93700000    13.34860000   -10.40000000
   61.96000000    13.34130000   -10.10000000
   61.98250000    13.33420000   -10.90000000
   62.00500000    13.32710000   -11.70000000
   62.02750000    13.32000000   -13.40000000
   62.05020000    13.31230000   -13.40000000
   62.07290000    13.30410000   -12.10000000
   62.09570000    13.29590000   -12.80000000
   62.11850000    13.28780000   -11.40000000
   62.14120000    13.27960000   -11.10000000
   62.16400000    13.27150000   -11.80000000
   62.18680000    13.26330000   -11.40000000
   62.20950000    13.25510000   -12.10000000
   62.23230000    13.24700000   -11.80000000
   62.25510000    13.23880000   -12.40000000
   62.27780000    13.23070000   -12.20000000
   62.30030000    13.22330000   -13.70000000
   62.32270000    13.21590000   -14.40000000
   62.34510000    13.20850000   -12.10000000
   62.36750000    13.20120000   -11.80000000
   62.39040000    13.19360000   -12.40000000
   62.41320000    13.18610000   -14.20000000
   62.43610000    13.17860000   -13.90000000
   62.45890000    13.17110000   -13.60000000
   62.48170000    13.16350000   -16.30000000
   62.50460000    13.15600000   -17.00000000
   62.52740000    13.14850000   -16.80000000
   62.55030000    13.14100000   -16.40000000
   62.57310000    13.13340000   -18.10000000
   62.59590000    13.12590000   -16.80000000
   62.61880000    13.11840000   -17.50000000
   62.64160000    13.11090000   -19.30000000
   62.66450000    13.10330000   -18.90000000
   62.68730000    13.09570000   -19.50000000
   62.70890000    13.08840000   -19.40000000
   62.73060000    13.08100000   -20.10000000
   62.75220000    13.07360000   -20.80000000
   62.77380000    13.06630000   -20.50000000
   62.79550000    13.05890000   -21.30000000
   62.81710000    13.05150000   -23.00000000
   62.83870000    13.04420000   -22.80000000
   62.86030000    13.03680000   -23.40000000
   62.88200000    13.02950000   -24.10000000
   62.90360000    13.02210000   -23.80000000
   62.92520000    13.01470000   -24.60000000
   62.94680000    13.00740000   -24.30000000
   62.96850000    13.00000000   -25.00000000
   62.99010000    12.99260000   -25.80000000
   63.01170000    12.98530000   -27.50000000
   63.03340000    12.97790000   -26.30000000
   63.05510000    12.97080000   -26.00000000
   63.07710000    12.96390000   -25.80000000
   63.09910000    12.95710000   -25.40000000
   63.12140000    12.95030000   -25.30000000
   63.14380000    12.94350000   -24.90000000
   63.16610000    12.93670000   -24.80000000
   63.18840000    12.92990000   -25.40000000
   63.21080000    12.92310000   -26.30000000
   63.23310000    12.91630000   -25.90000000
   63.25550000    12.90950000   -24.60000000
   63.27780000    12.90270000   -24.40000000
   63.30110000    12.89560000   -21.80000000
   63.32440000    12.88860000   -22.40000000
   63.34770000    12.88150000   -22.10000000
   63.37040000    12.87360000   -23.30000000
   63.39320000    12.86570000   -22.90000000
   63.41620000    12.85870000   -21.80000000
   63.45310000    12.84760000   -21.40000000
   63.46230000    12.84490000   -20.30000000
   63.48540000    12.83790000   -20.00000000
   63.50840000    12.83100000   -18.80000000
   63.53150000    12.82410000   -19.40000000
   63.55450000    12.81710000   -19.30000000
   63.57760000    12.81020000   -18.90000000
   63.60050000    12.80340000   -21.40000000
   63.62280000    12.79680000   -22.30000000
   63.64520000    12.79030000   -20.90000000
   63.66820000    12.78320000   -19.90000000
   63.69120000    12.77610000   -19.60000000
   63.71430000    12.76890000   -20.30000000
   63.73730000    12.76180000   -20.10000000
   63.76030000    12.75460000   -20.80000000
   63.78340000    12.74750000   -20.50000000
   63.80640000    12.74030000   -20.30000000
   63.82940000    12.73320000   -20.00000000
   63.85250000    12.72610000   -20.80000000
   63.87550000    12.71890000   -20.40000000
   63.89850000    12.71180000   -20.30000000
   63.94420000    12.69760000   -21.80000000
   63.96690000    12.69060000   -22.50000000
   63.98960000    12.68360000   -23.30000000
   64.01220000    12.67660000   -24.00000000
   64.03490000    12.66960000   -22.80000000
   64.05760000    12.66250000   -22.50000000
   64.08020000    12.65550000   -22.30000000
   64.10290000    12.64850000   -21.90000000
   64.12560000    12.64150000   -21.80000000
   64.14820000    12.63450000   -21.40000000
   64.17090000    12.62750000   -20.10000000
   64.19360000    12.62050000   -19.80000000
   64.21620000    12.61340000   -19.60000000
   64.23890000    12.60640000   -20.30000000
   64.26160000    12.59940000   -20.00000000
   64.28420000    12.59240000   -20.80000000
   64.30690000    12.58540000   -21.50000000
   64.32960000    12.57840000   -22.30000000
   64.35290000    12.57110000   -20.30000000
   64.37620000    12.56390000   -21.00000000
   64.39950000    12.55660000   -20.80000000
   64.42280000    12.54940000   -20.50000000
   64.44620000    12.54210000   -20.30000000
   64.46900000    12.53530000   -22.40000000
   64.49180000    12.52860000   -22.30000000
   64.51450000    12.52180000   -22.90000000
   64.53720000    12.51510000   -23.80000000
   64.56000000    12.50840000   -23.40000000
   64.58270000    12.50170000   -22.30000000
   64.60550000    12.49490000   -21.90000000
   64.62820000    12.48820000   -21.60000000
   64.65090000    12.48150000   -22.40000000
   64.67370000    12.47480000   -23.30000000
   64.69430000    12.46880000   -24.80000000
   64.71670000    12.46220000   -24.40000000
   64.73920000    12.45550000   -24.30000000
   64.76170000    12.44890000   -23.90000000
   64.78410000    12.44230000   -23.80000000
   64.80660000    12.43570000   -25.30000000
   64.82910000    12.42900000   -24.90000000
   64.85160000    12.42240000   -24.60000000
   64.87410000    12.41570000   -24.40000000
   64.89660000    12.40910000   -25.30000000
   64.91910000    12.40240000   -24.90000000
   64.94160000    12.39580000   -24.80000000
   64.96410000    12.38910000   -24.40000000
   64.98670000    12.38250000   -24.30000000
   65.00880000    12.37480000   -25.50000000
   65.03070000    12.36650000   -25.30000000
   65.05250000    12.35820000   -24.90000000
   65.07440000    12.34990000   -23.50000000
   65.09630000    12.34160000   -23.30000000
   65.11820000    12.33330000   -22.90000000
   65.14010000    12.32500000   -21.30000000
   65.16250000    12.31670000   -21.00000000
   65.18490000    12.30830000   -19.80000000
   65.20730000    12.30000000   -21.40000000
   65.22960000    12.29170000   -23.10000000
   65.25200000    12.28330000   -23.80000000
   65.27440000    12.27500000   -24.50000000
   65.29670000    12.26670000   -23.30000000
   65.31910000    12.25830000   -22.80000000
   65.34150000    12.25000000   -23.60000000
   65.36390000    12.24170000   -24.30000000
   65.38690000    12.23330000   -21.80000000
   65.41010000    12.22480000   -23.40000000
   65.43340000    12.21640000   -24.10000000
   65.45660000    12.20800000   -24.80000000
   65.47980000    12.19950000   -26.50000000
   65.50300000    12.19110000   -26.30000000
   65.52630000    12.18270000   -25.90000000
   65.54950000    12.17420000   -25.60000000
   65.57270000    12.16580000   -24.30000000
   65.59590000    12.15740000   -25.00000000
   65.61920000    12.14890000   -25.80000000
   65.64250000    12.14050000   -25.10000000
   65.66580000    12.13200000   -24.80000000
   65.68910000    12.12350000   -25.50000000
   65.71240000    12.11510000   -26.30000000
   65.73570000    12.10660000   -25.90000000
   65.75900000    12.09820000   -25.60000000
   65.78230000    12.08970000   -25.30000000
   65.80560000    12.08120000   -26.00000000
   65.82890000    12.07280000   -26.80000000
   65.85220000    12.06430000   -27.40000000
   65.87550000    12.05580000   -27.10000000
   65.89880000    12.04740000   -27.80000000
   65.92210000    12.03890000   -28.50000000
   65.94540000    12.03040000   -28.30000000
   65.96870000    12.02200000   -27.90000000
   65.99210000    12.01350000   -26.50000000
   66.01540000    12.00510000   -27.30000000
   66.03870000    11.99660000   -26.90000000
   66.06210000    11.98780000   -26.80000000
   66.08530000    11.97900000   -27.50000000
   66.10850000    11.97020000   -28.30000000
   66.13170000    11.96130000   -27.90000000
   66.15490000    11.95250000   -28.60000000
   66.17810000    11.94370000   -29.30000000
   66.20130000    11.93490000   -27.90000000
   66.22450000    11.92610000   -28.60000000
   66.24770000    11.91730000   -28.30000000
   66.27090000    11.90850000   -30.00000000
   66.29440000    11.89960000   -29.10000000
   66.31820000    11.89080000   -28.80000000
   66.34200000    11.88200000   -27.40000000
   66.36580000    11.87310000   -29.10000000
   66.38960000    11.86430000   -29.80000000
   66.41340000    11.85550000   -30.50000000
   66.43720000    11.84660000   -31.30000000
   66.46110000    11.83780000   -30.90000000
   66.48500000    11.82880000   -29.90000000
   66.50950000    11.81960000   -29.50000000
   66.53390000    11.81030000   -30.30000000
   66.55840000    11.80110000   -29.90000000
   66.63180000    11.77340000   -31.10000000
   66.65630000    11.76420000   -32.80000000
   66.68070000    11.75500000   -32.50000000
   66.70520000    11.74570000   -33.30000000
   66.72970000    11.73650000   -31.80000000
   66.75320000    11.72790000   -34.00000000
   66.77670000    11.71920000   -32.60000000
   66.80030000    11.71060000   -33.30000000
   66.82380000    11.70190000   -33.00000000
   66.84730000    11.69320000   -31.80000000
   66.87040000    11.68430000   -33.50000000
   66.89350000    11.67540000   -33.30000000
   66.91690000    11.66630000   -31.90000000
   66.94040000    11.65730000   -32.60000000
   66.96380000    11.64820000   -31.30000000
   66.98720000    11.63910000   -29.90000000
   67.01070000    11.63010000   -27.60000000
   67.03410000    11.62100000   -26.30000000
   67.05760000    11.61200000   -24.90000000
   67.08100000    11.60290000   -25.60000000
   67.10450000    11.59390000   -25.30000000
   67.12790000    11.58480000   -24.90000000
   67.15140000    11.57580000   -24.60000000
   67.17480000    11.56670000   -24.30000000
   67.19820000    11.55770000   -25.00000000
   67.22170000    11.54860000   -24.80000000
   67.24510000    11.53960000   -24.30000000
   67.26860000    11.53050000   -23.00000000
   67.29200000    11.52140000   -23.80000000
   67.31550000    11.51240000   -22.40000000
   67.33850000    11.50350000   -25.00000000
   67.36160000    11.49450000   -23.80000000
   67.38470000    11.48560000   -23.30000000
   67.40780000    11.47670000   -26.10000000
   67.43090000    11.46780000   -26.80000000
   67.45390000    11.45880000   -28.50000000
   67.47700000    11.44990000   -28.30000000
   67.50010000    11.44100000   -28.90000000
   67.52320000    11.43200000   -29.60000000
   67.54620000    11.42310000   -30.30000000
   67.56930000    11.41420000   -32.00000000
   67.59240000    11.40530000   -32.80000000
   67.61480000    11.39460000   -33.30000000
   67.63710000    11.38400000   -33.80000000
   67.65970000    11.37400000   -30.90000000
   67.68350000    11.36670000   -29.80000000
   67.70720000    11.35940000   -29.40000000
   67.73090000    11.35210000   -28.10000000
   67.75460000    11.34470000   -27.90000000
   67.77830000    11.33740000   -28.60000000
   67.80200000    11.33010000   -27.40000000
   67.82580000    11.32280000   -26.10000000
   67.84950000    11.31540000   -24.80000000
   67.87320000    11.30810000   -24.60000000
   67.89640000    11.29790000   -27.30000000
   67.91930000    11.28580000   -27.90000000
   67.94230000    11.27380000   -27.50000000
   67.96520000    11.26170000   -28.10000000
   67.98810000    11.24960000   -28.80000000
   68.01110000    11.23750000   -29.30000000
   68.03400000    11.22550000   -30.90000000
   68.05690000    11.21340000   -32.50000000
   68.07980000    11.20130000   -31.00000000
   68.10270000    11.18920000   -32.80000000
   68.12490000    11.17880000   -36.80000000
   68.14700000    11.16870000   -36.30000000
   68.16930000    11.15850000   -35.10000000
   68.19170000    11.14830000   -34.80000000
   68.21410000    11.13810000   -34.50000000
   68.23630000    11.12790000   -34.80000000
   68.25840000    11.11770000   -33.30000000
   68.28050000    11.10760000   -33.00000000
   68.30260000    11.09740000   -32.60000000
   68.32460000    11.08720000   -33.30000000
   68.34670000    11.07700000   -33.00000000
   68.36830000    11.06700000   -36.30000000
   68.38980000    11.05700000   -34.00000000
   68.41130000    11.04700000   -33.60000000
   68.43270000    11.03700000   -33.30000000
   68.45420000    11.02700000   -33.00000000
   68.47570000    11.01640000   -32.50000000
   68.49720000    11.00560000   -32.00000000
   68.51870000    10.99480000   -32.80000000
   68.54030000    10.98400000   -31.30000000
   68.56200000    10.97310000   -30.30000000
   68.58420000    10.96190000   -28.80000000
   68.60640000    10.95080000   -29.50000000
   68.62850000    10.93970000   -30.10000000
   68.65070000    10.92860000   -30.80000000
   68.67290000    10.91750000   -30.40000000
   68.69510000    10.90640000   -31.00000000
   68.71720000    10.89520000   -30.60000000
   68.73940000    10.88410000   -30.30000000
   68.76160000    10.87300000   -30.90000000
   68.78370000    10.86190000   -31.60000000
   68.80610000    10.85050000   -31.50000000
   68.82850000    10.83900000   -32.10000000
   68.85100000    10.82750000   -31.80000000
   68.87340000    10.81600000   -32.50000000
   68.89580000    10.80450000   -33.00000000
   68.91830000    10.79300000   -34.80000000
   68.94070000    10.78150000   -35.30000000
   68.96260000    10.77020000   -36.30000000
   68.98450000    10.75890000   -38.00000000
   69.00640000    10.74770000   -38.50000000
   69.02830000    10.73640000   -38.30000000
   69.05020000    10.72510000   -36.80000000
   69.07210000    10.71390000   -37.50000000
   69.09400000    10.70260000   -37.10000000
   69.11600000    10.69130000   -40.80000000
   69.13790000    10.68010000   -42.50000000
   69.15980000    10.66880000   -42.00000000
   69.18170000    10.65750000   -42.80000000
   69.20360000    10.64630000   -42.30000000
   69.22550000    10.63500000   -43.00000000
   69.29150000    10.59940000   -45.10000000
   69.31340000    10.58750000   -45.80000000
   69.33540000    10.57560000   -43.30000000
   69.35730000    10.56380000   -44.10000000
   69.37920000    10.55190000   -44.80000000
   69.40110000    10.54010000   -45.50000000
   69.42300000    10.52820000   -44.00000000
   69.44490000    10.51640000   -44.60000000
   69.46730000    10.50540000   -45.30000000
   69.48990000    10.49490000   -47.00000000
   69.51260000    10.48440000   -48.80000000
   69.53520000    10.47390000   -47.30000000
   69.55790000    10.46340000   -45.00000000
   69.58050000    10.45280000   -44.60000000
   69.60320000    10.44230000   -44.30000000
   69.62590000    10.43180000   -45.00000000
   69.64850000    10.42130000   -45.60000000
   69.67120000    10.41080000   -46.30000000
   69.69380000    10.40030000   -47.00000000
   69.71820000    10.39030000   -46.30000000
   69.74260000    10.38030000   -48.00000000
   69.76680000    10.37080000   -49.30000000
   69.79100000    10.36150000   -50.00000000
   69.81520000    10.35220000   -50.60000000
   69.83930000    10.34290000   -49.30000000
   69.86350000    10.33360000   -48.00000000
   69.88770000    10.32440000   -46.80000000
   69.91180000    10.31470000   -46.50000000
   69.93590000    10.30490000   -47.10000000
   69.96010000    10.29520000   -46.80000000
   69.98420000    10.28540000   -47.50000000
   70.00830000    10.27570000   -48.30000000
   70.03270000    10.26600000   -48.50000000
   70.05700000    10.25640000   -49.10000000
   70.08140000    10.24670000   -48.80000000
   70.10570000    10.23710000   -50.50000000
   70.13000000    10.22740000   -52.60000000
   70.15420000    10.21800000   -53.30000000
   70.17840000    10.20860000   -53.10000000
   70.20280000    10.19910000   -51.30000000
   70.22710000    10.18960000   -51.00000000
   70.25150000    10.18000000   -50.80000000
   70.27580000    10.17050000   -50.50000000
   70.30020000    10.16100000   -51.10000000
   70.32450000    10.15150000   -50.80000000
   70.34890000    10.14200000   -51.50000000
   70.37330000    10.13250000   -53.30000000
   70.39810000    10.12280000   -50.80000000
   70.42330000    10.11310000   -50.50000000
   70.44840000    10.10340000   -50.30000000
   70.47360000    10.09370000   -50.00000000
   70.49870000    10.08400000   -49.60000000
   70.52390000    10.07430000   -52.50000000
   70.54910000    10.06460000   -55.10000000
   70.57420000    10.05490000   -55.80000000
   70.59940000    10.04520000   -55.50000000
   70.62450000    10.03550000   -53.30000000
   70.64830000    10.02640000   -56.50000000
   70.67210000    10.01730000   -55.30000000
   70.69590000    10.00830000   -56.00000000
   70.71970000     9.99920000   -55.60000000
   70.74350000     9.99010000   -57.50000000
   70.76730000     9.98100000   -59.10000000
   70.79100000     9.97190000   -62.00000000
   70.81480000     9.96290000   -62.60000000
   70.83860000     9.95380000   -64.50000000
   70.86240000     9.94470000   -61.10000000
   70.88620000     9.93560000   -57.80000000
   70.91000000     9.92660000   -55.50000000
   70.93380000     9.91750000   -54.10000000
   70.95750000     9.90840000   -51.80000000
   70.98130000     9.89930000   -51.60000000
   71.00510000     9.89020000   -51.30000000
   71.02890000     9.88120000   -52.00000000
   71.05270000     9.87210000   -52.80000000
   71.07770000     9.86240000   -49.30000000
   71.10260000     9.85280000   -49.00000000
   71.12760000     9.84320000   -50.80000000
   71.15260000     9.83360000   -50.50000000
   71.17750000     9.82390000   -49.30000000
   71.20250000     9.81430000   -49.00000000
   71.22750000     9.80470000   -47.60000000
   71.25240000     9.79510000   -48.30000000
   71.27740000     9.78540000   -48.00000000
   71.30240000     9.77580000   -48.80000000
   71.32730000     9.76620000   -47.50000000
   71.35150000     9.75560000   -49.50000000
   71.37520000     9.74430000   -48.10000000
   71.39870000     9.73310000   -52.00000000
   71.42160000     9.72210000   -53.80000000
   71.44440000     9.71100000   -54.50000000
   71.46690000     9.69960000   -59.30000000
   71.48820000     9.68700000   -57.80000000
   71.50900000     9.67450000   -54.50000000
   71.52980000     9.66210000   -54.10000000
   71.55070000     9.64960000   -48.80000000
   71.57150000     9.63720000   -42.30000000
   71.59300000     9.62520000   -38.60000000
   71.61470000     9.61340000   -38.30000000
   71.63630000     9.60160000   -40.00000000
   71.65800000     9.58970000   -43.80000000
   71.67970000     9.57790000   -47.50000000
   71.70130000     9.56550000   -49.00000000
   71.72300000     9.55300000   -49.80000000
   71.74470000     9.54050000   -49.30000000
   71.76650000     9.52680000   -49.50000000
   71.78830000     9.51310000   -49.10000000
   71.81010000     9.49940000   -45.80000000
   71.83190000     9.48570000   -41.30000000
   71.85380000     9.47200000   -38.80000000
   71.87560000     9.45830000   -35.30000000
   71.89720000     9.44470000   -34.30000000
   71.91880000     9.43110000   -33.00000000
   71.94050000     9.41750000   -32.50000000
   71.96210000     9.40390000   -35.30000000
   71.98380000     9.39030000   -37.80000000
   72.00540000     9.37670000   -40.50000000
   72.02700000     9.36310000   -43.10000000
   72.04870000     9.34940000   -42.80000000
   72.07030000     9.33580000   -41.30000000
   72.09190000     9.32220000   -39.00000000
   72.11360000     9.30860000   -41.60000000
   72.13520000     9.29500000   -41.30000000
   72.15690000     9.28140000   -38.80000000
   72.17850000     9.26780000   -38.50000000
   72.20010000     9.25410000   -40.00000000
   72.22180000     9.24050000   -40.60000000
   72.24340000     9.22690000   -40.30000000
   72.26500000     9.21330000   -44.00000000
   72.28660000     9.19970000   -47.80000000
   72.30820000     9.18610000   -50.50000000
   72.32980000     9.17250000   -51.00000000
   72.35130000     9.15900000   -49.60000000
   72.37290000     9.14540000   -51.30000000
   72.39450000     9.13180000   -54.00000000
   72.43710000     9.10500000   -57.00000000
   72.45610000     9.09340000   -56.60000000
   72.47320000     9.08260000   -57.50000000
   72.49210000     9.07100000   -54.00000000
   72.51110000     9.05940000   -50.60000000
   72.53000000     9.04780000   -50.30000000
   72.54900000     9.03610000   -50.00000000
   72.56790000     9.02450000   -48.60000000
   72.58680000     9.01290000   -48.30000000
   72.60580000     9.00130000   -46.00000000
   72.62470000     8.98970000   -43.60000000
   72.64480000     8.97750000   -40.10000000
   72.66490000     8.96530000   -36.80000000
   72.68510000     8.95320000   -32.50000000
   72.70520000     8.94100000   -28.00000000
   72.72530000     8.92880000   -26.60000000
   72.74540000     8.91670000   -26.30000000
   72.76550000     8.90450000   -24.90000000
   72.78560000     8.89230000   -23.60000000
   72.80580000     8.88020000   -23.30000000
   72.82590000     8.86800000   -19.90000000
   72.84600000     8.85590000   -19.50000000
   72.86610000     8.84370000   -16.30000000
   72.88620000     8.83150000   -11.90000000
   72.90630000     8.81940000    -8.40000000
   72.92640000     8.80720000    -6.10000000
   72.94660000     8.79500000    -2.60000000
   72.96670000     8.78290000    -1.30000000
   72.98680000     8.77070000    -5.10000000
   73.00710000     8.75850000   -13.40000000
   73.02750000     8.74680000   -24.80000000
   73.04800000     8.73530000   -33.60000000
   73.06850000     8.72380000   -41.50000000
   73.08890000     8.71240000   -45.10000000
   73.10940000     8.70090000   -50.00000000
   73.12990000     8.68940000   -52.60000000
   73.15030000     8.67790000   -53.30000000
   73.17080000     8.66640000   -48.00000000
   73.19150000     8.65480000   -40.60000000
   73.21230000     8.64310000   -46.50000000
   73.23310000     8.63140000   -43.00000000
   73.25390000     8.61970000   -27.50000000
   73.27470000     8.60800000    -8.90000000
   73.29550000     8.59630000    -9.70000000
   73.31640000     8.58460000   -11.40000000
   73.33720000     8.57280000   -11.10000000
   73.35670000     8.56220000   -15.10000000
   73.39700000     8.54740000   -31.30000000
   73.42020000     8.54040000   -34.10000000
   73.44350000     8.53340000   -31.90000000
   73.46680000     8.52640000   -29.80000000
   73.49000000     8.51930000   -31.50000000
   73.51330000     8.51230000   -34.50000000
   73.53660000     8.50530000   -35.30000000
   73.55980000     8.49830000   -38.10000000
   73.58310000     8.49130000   -39.00000000
   73.60630000     8.48430000   -39.80000000
   73.62960000     8.47730000   -39.60000000
   73.65290000     8.47030000   -41.50000000
   73.67610000     8.46330000   -42.30000000
   73.69940000     8.45630000   -46.10000000
   73.72270000     8.44930000   -50.00000000
   73.74590000     8.44230000   -53.00000000
   73.76920000     8.43530000   -52.80000000
   73.79260000     8.42820000   -54.10000000
   73.81600000     8.42120000   -54.00000000
   73.83950000     8.41420000   -52.80000000
   73.86290000     8.40710000   -52.50000000
   73.88630000     8.40010000   -52.30000000
   73.90970000     8.39300000   -51.10000000
   73.93320000     8.38600000   -52.00000000
   73.95660000     8.37890000   -52.80000000
   73.98000000     8.37190000   -52.60000000
   74.00340000     8.36480000   -53.50000000
   74.02690000     8.35780000   -54.30000000
   74.05030000     8.35070000   -54.10000000
   74.07370000     8.34370000   -54.00000000
   74.09710000     8.33670000   -53.80000000
   74.12120000     8.33020000   -50.60000000
   74.14580000     8.32430000   -50.50000000
   74.17030000     8.31830000   -50.30000000
   74.19480000     8.31230000   -49.10000000
   74.21930000     8.30640000   -53.30000000
   74.24380000     8.30040000   -50.00000000
   74.26820000     8.29450000   -47.80000000
   74.29270000     8.28850000   -45.60000000
   74.31710000     8.28260000   -44.50000000
   74.34160000     8.27660000   -44.30000000
   74.36620000     8.27070000   -45.60000000
   74.39130000     8.26520000   -49.50000000
   74.41630000     8.25970000   -47.80000000
   74.44120000     8.25410000   -53.80000000
   74.46610000     8.24840000   -54.60000000
   74.49100000     8.24270000   -54.50000000
   74.51600000     8.23710000   -55.30000000
   74.54090000     8.23140000   -55.30000000
   74.56580000     8.22580000   -56.00000000
   74.59100000     8.22010000   -55.00000000
   74.61630000     8.21430000   -57.00000000
   74.64170000     8.20920000   -56.30000000
   74.66710000     8.20430000   -57.30000000
   74.69270000     8.19950000   -57.30000000
   74.71850000     8.19470000   -58.30000000
   74.74420000     8.19000000   -60.10000000
   74.76940000     8.18410000   -62.80000000
   74.79440000     8.17800000   -63.60000000
   74.81950000     8.17180000   -63.50000000
   74.84450000     8.16570000   -63.30000000
   74.86950000     8.15960000   -62.10000000
   74.89460000     8.15340000   -61.00000000
   74.91960000     8.14730000   -61.80000000
   74.94460000     8.14120000   -60.60000000
   74.96970000     8.13500000   -61.50000000
   74.99470000     8.12890000   -61.30000000
   75.01980000     8.12280000   -60.30000000
   75.04360000     8.11740000   -64.80000000
   75.06690000     8.11240000   -64.70000000
   75.09020000     8.10740000   -62.50000000
   75.11340000     8.10250000   -61.30000000
   75.13670000     8.09750000   -59.10000000
   75.16000000     8.09260000   -53.00000000
   75.18330000     8.08760000   -48.80000000
   75.20660000     8.08270000   -48.60000000
   75.22980000     8.07770000   -47.50000000
   75.25310000     8.07280000   -47.30000000
   75.27640000     8.06780000   -52.30000000
   75.29930000     8.06280000   -56.30000000
   75.32190000     8.05770000   -61.10000000
   75.34440000     8.05260000   -65.20000000
   75.36690000     8.04750000   -68.10000000
   75.38940000     8.04240000   -69.00000000
   75.41190000     8.03730000   -68.90000000
   75.43440000     8.03220000   -65.70000000
   75.45690000     8.02700000   -57.30000000
   75.47940000     8.02190000   -55.30000000
   75.50190000     8.01680000   -49.00000000
   75.52400000     8.01180000   -38.80000000
   75.54610000     8.00680000   -32.60000000
   75.56820000     8.00180000   -30.40000000
   75.59030000     7.99680000   -33.30000000
   75.61240000     7.99180000   -38.30000000
   75.63440000     7.98680000   -45.30000000
   75.65650000     7.98180000   -52.30000000
   75.67860000     7.97680000   -59.30000000
   75.70070000     7.97180000   -64.30000000
   75.72280000     7.96680000   -67.20000000
   75.74480000     7.96180000   -69.10000000
   75.76690000     7.95680000   -70.00000000
   75.78940000     7.95240000   -69.60000000
   75.81200000     7.94810000   -69.50000000
   75.83450000     7.94380000   -70.40000000
   75.90220000     7.93080000   -58.00000000
   75.92370000     7.92680000   -54.80000000
   75.94520000     7.92270000   -53.60000000
   75.96670000     7.91870000   -51.50000000
   75.98820000     7.91460000   -52.30000000
   76.00970000     7.91060000   -52.30000000
   76.03120000     7.90630000   -52.50000000
   76.05290000     7.90120000   -52.30000000
   76.07470000     7.89620000   -52.30000000
   76.09640000     7.89110000   -53.10000000
   76.11820000     7.88600000   -56.00000000
   76.13990000     7.88090000   -57.00000000
   76.16160000     7.87580000   -57.80000000
   76.18340000     7.87080000   -60.80000000
   76.20510000     7.86570000   -62.60000000
   76.22690000     7.86060000   -64.60000000
   76.24860000     7.85550000   -65.50000000
   76.27040000     7.85040000   -66.40000000
   76.29210000     7.84540000   -67.30000000
   76.31360000     7.84030000   -67.90000000
   76.33540000     7.83510000   -64.40000000
   76.35730000     7.82980000   -64.30000000
   76.37930000     7.82440000   -63.00000000
   76.40130000     7.81900000   -62.00000000
   76.42320000     7.81370000   -61.80000000
   76.44520000     7.80830000   -59.60000000
   76.46710000     7.80170000   -58.60000000
   76.48900000     7.79430000   -57.50000000
   76.51090000     7.78690000   -55.30000000
   76.53280000     7.77960000   -54.00000000
   76.55470000     7.77220000   -51.80000000
   76.57650000     7.76580000   -48.80000000
   76.59840000     7.75950000   -45.50000000
   76.62020000     7.75320000   -40.30000000
   76.63960000     7.74740000   -37.60000000
