   84.63910000    -5.73230000   -62.50000000
   84.63810000    -5.70690000   -62.10000000
   84.63580000    -5.65600000   -62.30000000
   84.63390000    -5.63060000   -60.00000000
   84.63210000    -5.60520000   -59.50000000
   84.63030000    -5.57980000   -58.00000000
   84.62860000    -5.55450000   -53.80000000
   84.62740000    -5.52950000   -49.30000000
   84.62620000    -5.50450000   -46.00000000
   84.62500000    -5.47950000   -44.50000000
   84.62380000    -5.45450000   -45.00000000
   84.62270000    -5.42950000   -44.60000000
   84.62150000    -5.40450000   -45.30000000
   84.62030000    -5.37950000   -45.80000000
   84.61910000    -5.35450000   -46.50000000
   84.61790000    -5.32950000   -47.00000000
   84.61670000    -5.30450000   -44.50000000
   84.61580000    -5.27960000   -39.00000000
   84.61540000    -5.25490000   -36.50000000
   84.61470000    -5.20550000   -36.80000000
   84.61430000    -5.18070000   -35.60000000
   84.61420000    -5.15610000   -38.30000000
   84.61410000    -5.13150000   -39.80000000
   84.61400000    -5.10690000   -39.50000000
   84.61390000    -5.08230000   -40.10000000
   84.61380000    -5.05770000   -40.80000000
   84.61360000    -5.03310000   -43.30000000
   84.61350000    -5.00840000   -44.00000000
   84.61340000    -4.98380000   -45.60000000
   84.61330000    -4.95920000   -45.30000000
   84.61320000    -4.93460000   -48.00000000
   84.61310000    -4.90870000   -50.50000000
   84.61300000    -4.88260000   -51.00000000
   84.61290000    -4.85640000   -53.80000000
   84.61280000    -4.83020000   -54.30000000
   84.61270000    -4.80400000   -55.00000000
   84.61980000    -4.72630000   -58.50000000
   84.62180000    -4.70110000   -59.10000000
   84.62370000    -4.67600000   -58.80000000
   84.62560000    -4.65080000   -58.30000000
   84.62760000    -4.62570000   -59.00000000
   84.62950000    -4.60060000   -58.60000000
   84.63140000    -4.57540000   -59.30000000
   84.63340000    -4.55030000   -60.00000000
   84.63530000    -4.52520000   -60.60000000
   84.63730000    -4.50000000   -60.30000000
   84.63920000    -4.47490000   -60.00000000
   84.64110000    -4.44980000   -60.50000000
   84.64290000    -4.42450000   -62.80000000
   84.64430000    -4.39880000   -63.30000000
   84.64570000    -4.37300000   -63.00000000
   84.64710000    -4.34730000   -63.60000000
   84.64980000    -4.29610000   -61.00000000
   84.65120000    -4.27060000   -60.60000000
   84.65260000    -4.24510000   -58.30000000
   84.65390000    -4.21970000   -57.00000000
   84.65530000    -4.19420000   -55.60000000
   84.65750000    -4.16860000   -50.60000000
   84.66020000    -4.14300000   -49.30000000
   84.66290000    -4.11740000   -48.00000000
   84.66560000    -4.09180000   -45.60000000
   84.66830000    -4.06620000   -42.30000000
   84.67100000    -4.04060000   -39.00000000
   84.67540000    -4.00000000   -34.80000000
   84.68880000    -3.81200000   -22.80000000
   84.68780000    -3.78520000   -24.40000000
   84.68690000    -3.75830000   -26.10000000
   84.68400000    -3.67770000   -29.30000000
   84.68300000    -3.65080000   -28.90000000
   84.68210000    -3.62400000   -29.60000000
   84.68110000    -3.59710000   -30.30000000
   84.68020000    -3.57030000   -34.00000000
   84.67920000    -3.54340000   -36.80000000
   84.67820000    -3.51650000   -39.50000000
   84.67630000    -3.46280000   -47.00000000
   84.67440000    -3.40920000   -52.50000000
   84.67360000    -3.38240000   -53.30000000
   84.67300000    -3.35550000   -55.00000000
   84.67240000    -3.32860000   -56.80000000
   84.67180000    -3.30170000   -57.50000000
   84.67070000    -3.24730000   -50.50000000
   84.67020000    -3.21980000   -49.30000000
   84.66970000    -3.19230000   -51.00000000
   84.66930000    -3.16480000   -54.80000000
   84.66880000    -3.13730000   -57.50000000
   84.66770000    -3.08310000   -60.80000000
   84.66690000    -3.05810000   -61.60000000
   84.66610000    -3.03310000   -62.50000000
   84.66530000    -3.00800000   -62.10000000
   84.66430000    -2.98200000   -65.50000000
   84.66300000    -2.95460000   -66.20000000
   84.66160000    -2.92710000   -67.00000000
   84.66030000    -2.89970000   -67.70000000
   84.67200000    -2.82040000   -66.20000000
   84.67850000    -2.79450000   -66.00000000
   84.67640000    -2.66640000   -63.10000000
   84.66570000    -2.64130000   -58.80000000
   84.65500000    -2.61610000   -57.60000000
   84.64420000    -2.59100000   -55.50000000
   84.63350000    -2.56580000   -53.30000000
   84.62270000    -2.54070000   -52.00000000
   84.61200000    -2.51550000   -50.80000000
   84.60130000    -2.49040000   -49.50000000
   84.59050000    -2.46520000   -48.30000000
   84.57980000    -2.44010000   -48.10000000
   84.56920000    -2.41520000   -47.00000000
   84.55890000    -2.39050000   -45.80000000
   84.54850000    -2.36590000   -45.50000000
   84.53820000    -2.34130000   -45.30000000
   84.52780000    -2.31670000   -45.10000000
   84.51750000    -2.29210000   -44.00000000
   84.49690000    -2.24300000   -44.50000000
   84.48660000    -2.21860000   -44.30000000
   84.47640000    -2.19420000   -45.10000000
   84.46610000    -2.16980000   -46.00000000
   84.45590000    -2.14500000   -46.50000000
   84.44570000    -2.11990000   -47.50000000
   84.43560000    -2.09490000   -48.30000000
   84.42540000    -2.06980000   -49.00000000
   84.41520000    -2.04480000   -50.00000000
   84.40510000    -2.01980000   -51.80000000
   84.39490000    -1.99470000   -53.60000000
   84.38470000    -1.96970000   -55.50000000
   84.37450000    -1.94460000   -57.50000000
   84.36440000    -1.91960000   -60.30000000
   84.34400000    -1.86930000   -65.30000000
   84.33370000    -1.84410000   -67.30000000
   84.32340000    -1.81880000   -69.20000000
   84.31310000    -1.79360000   -70.10000000
   84.30280000    -1.76840000   -71.90000000
   84.29250000    -1.74320000   -73.80000000
   84.28220000    -1.71790000   -75.70000000
   84.27190000    -1.69270000   -76.60000000
   84.26160000    -1.66750000   -74.40000000
   84.25130000    -1.64220000   -72.30000000
   84.23150000    -1.59210000   -60.80000000
   84.22200000    -1.56730000   -53.50000000
   84.21250000    -1.54240000   -55.50000000
   84.20300000    -1.51760000   -59.30000000
   84.19350000    -1.49250000   -63.80000000
   84.18370000    -1.46710000   -66.80000000
   84.16420000    -1.41600000   -68.80000000
   84.15440000    -1.39040000   -68.70000000
   84.14470000    -1.36480000   -67.60000000
   84.13520000    -1.33920000   -63.30000000
   84.12690000    -1.31380000   -62.10000000
   84.11870000    -1.28830000   -62.00000000
   84.11040000    -1.26280000   -61.00000000
   84.09360000    -1.21230000   -58.60000000
   84.08500000    -1.18740000   -57.50000000
   84.07640000    -1.16240000   -55.50000000
   84.06780000    -1.13740000   -52.30000000
   84.05920000    -1.11240000   -51.30000000
   84.05060000    -1.08740000   -51.10000000
   84.04200000    -1.06240000   -50.00000000
   84.03340000    -1.03750000   -50.00000000
   84.02480000    -1.01250000   -50.80000000
   84.00770000    -0.96250000   -53.80000000
   83.99910000    -0.93750000   -54.60000000
   83.99050000    -0.91250000   -55.60000000
   83.98190000    -0.88750000   -55.50000000
   83.97330000    -0.86260000   -54.50000000
   83.96470000    -0.83760000   -53.30000000
   83.95610000    -0.81260000   -53.30000000
   83.94750000    -0.78760000   -53.30000000
   83.93890000    -0.76260000   -53.30000000
   83.93030000    -0.73760000   -53.10000000
   83.92180000    -0.71260000   -53.00000000
   83.91320000    -0.68770000   -54.00000000
   83.90460000    -0.66270000   -55.00000000
   83.89600000    -0.63770000   -55.00000000
   83.88740000    -0.61270000   -55.00000000
   83.87880000    -0.58770000   -54.80000000
   83.87020000    -0.56270000   -53.80000000
   83.85310000    -0.51300000   -53.50000000
   83.84470000    -0.48830000   -53.30000000
   83.83620000    -0.46360000   -53.30000000
   83.82770000    -0.43880000   -53.30000000
   83.81920000    -0.41410000   -53.30000000
   83.81060000    -0.39070000   -53.50000000
   83.80210000    -0.36770000   -53.50000000
   83.79350000    -0.34460000   -53.50000000
   83.78490000    -0.32160000   -54.50000000
   83.77640000    -0.29860000   -54.30000000
   83.76780000    -0.27550000   -55.30000000
   83.75920000    -0.25250000   -55.30000000
   83.75070000    -0.22940000   -56.30000000
   83.74210000    -0.20640000   -55.30000000
   83.73350000    -0.18330000   -55.30000000
   83.72500000    -0.16030000   -55.30000000
   83.71640000    -0.13730000   -56.30000000
   83.69930000    -0.09130000   -57.10000000
   83.69080000    -0.06830000   -55.10000000
   83.68230000    -0.04540000   -53.10000000
   83.67370000    -0.02240000   -52.10000000
   83.66520000     0.00050000   -51.10000000
   83.65670000     0.02350000   -52.10000000
   83.64810000     0.04640000   -52.10000000
   83.63960000     0.06940000   -53.10000000
   83.63150000     0.09230000   -51.50000000
   83.62390000     0.11510000   -52.50000000
   83.61640000     0.13790000   -52.50000000
   83.60890000     0.16070000   -52.50000000
   83.60130000     0.18350000   -51.50000000
   83.59380000     0.20630000   -50.50000000
   83.58620000     0.22900000   -49.50000000
   83.54490000     0.23590000   -50.50000000
   83.53180000     0.21650000   -49.50000000
   83.51860000     0.19710000   -50.50000000
   83.50550000     0.17770000   -50.50000000
   83.49240000     0.15830000   -50.50000000
   83.47910000     0.13880000   -51.10000000
   83.46570000     0.11910000   -51.10000000
   83.45230000     0.09940000   -51.10000000
   83.43890000     0.07960000   -51.10000000
   83.42550000     0.05990000   -52.10000000
   83.41210000     0.04020000   -53.10000000
   83.38540000     0.00090000   -55.00000000
   83.37210000    -0.01870000   -55.00000000
   83.35880000    -0.03820000   -55.00000000
   83.34550000    -0.05780000   -53.00000000
   83.33240000    -0.07650000   -51.00000000
   83.31950000    -0.09470000   -50.00000000
   83.30650000    -0.11280000   -50.00000000
   83.29360000    -0.13090000   -50.00000000
   83.28060000    -0.14900000   -50.00000000
   83.26770000    -0.16710000   -50.00000000
   83.25470000    -0.18520000   -49.00000000
   83.24180000    -0.20340000   -49.00000000
   83.22880000    -0.22150000   -48.00000000
   83.21590000    -0.23960000   -46.00000000
   83.20290000    -0.25770000   -46.00000000
   83.18950000    -0.27650000   -47.50000000
   83.17600000    -0.29550000   -46.50000000
   83.14910000    -0.33330000   -46.10000000
   83.13580000    -0.35210000   -47.30000000
   83.12240000    -0.37090000   -47.30000000
   83.10900000    -0.38970000   -48.30000000
   83.09560000    -0.40850000   -50.30000000
   83.08230000    -0.42740000   -51.30000000
   83.06890000    -0.44620000   -50.30000000
   83.05550000    -0.46500000   -50.30000000
   83.04220000    -0.48380000   -51.50000000
   83.02880000    -0.50260000   -51.50000000
   83.01540000    -0.52140000   -53.50000000
   83.00210000    -0.54020000   -54.50000000
   82.97100000    -0.51540000   -53.50000000
   82.96210000    -0.49360000   -48.30000000
   82.95320000    -0.47180000   -44.30000000
   82.94440000    -0.45000000   -38.10000000
   82.93550000    -0.42820000   -35.10000000
   82.92660000    -0.40640000   -32.00000000
   82.85930000    -0.43420000   -34.00000000
   82.84750000    -0.45620000   -35.10000000
   82.83560000    -0.47810000   -37.10000000
   82.82380000    -0.50000000   -39.30000000
   82.81200000    -0.52200000   -40.30000000
   82.80010000    -0.54390000   -40.30000000
   82.78790000    -0.56570000   -47.30000000
   82.77380000    -0.58640000   -48.30000000
   82.75980000    -0.60720000   -48.30000000
   82.74580000    -0.62800000   -49.30000000
   82.71780000    -0.66960000   -50.50000000
   82.70370000    -0.69040000   -50.50000000
   82.68970000    -0.71120000   -51.60000000
   82.67570000    -0.73200000   -51.60000000
   82.66170000    -0.75280000   -52.80000000
   82.64760000    -0.77360000   -53.80000000
   82.63360000    -0.79440000   -54.80000000
   82.61960000    -0.81520000   -53.80000000
   82.60550000    -0.83600000   -54.00000000
   82.59150000    -0.85680000   -54.00000000
   82.57750000    -0.87760000   -55.00000000
   82.56340000    -0.89840000   -56.10000000
   82.54940000    -0.91920000   -57.10000000
   82.53540000    -0.94000000   -58.30000000
   82.52130000    -0.96080000   -60.30000000
   82.50730000    -0.98160000   -61.50000000
   82.49330000    -1.00240000   -61.50000000
   82.46470000    -1.04450000   -62.80000000
   82.44990000    -1.06610000   -62.00000000
   82.43500000    -1.08770000   -62.00000000
   82.42010000    -1.10930000   -61.00000000
   82.40520000    -1.13100000   -61.10000000
   82.39040000    -1.15260000   -60.30000000
   82.37550000    -1.17420000   -59.30000000
   82.36060000    -1.19580000   -59.30000000
   82.34570000    -1.21750000   -58.50000000
   82.33090000    -1.23910000   -56.50000000
   82.31600000    -1.26070000   -55.50000000
   82.30110000    -1.28230000   -53.60000000
   82.28630000    -1.30400000   -51.80000000
   82.27140000    -1.32560000   -50.80000000
   82.25650000    -1.34720000   -48.80000000
   82.24160000    -1.36880000   -50.00000000
   82.22680000    -1.39050000   -51.00000000
   82.19720000    -1.43350000   -53.80000000
   82.18240000    -1.45490000   -56.00000000
   82.16770000    -1.47630000   -57.00000000
   82.13740000    -1.51960000   -60.60000000
   82.12180000    -1.54160000   -59.80000000
   82.10620000    -1.56360000   -59.80000000
   82.09060000    -1.58560000   -59.00000000
   82.07490000    -1.60750000   -57.00000000
   82.05930000    -1.62950000   -55.10000000
   82.04370000    -1.65150000   -52.30000000
   82.02810000    -1.67350000   -49.30000000
   82.01250000    -1.69540000   -45.50000000
   81.99690000    -1.71740000   -42.50000000
   81.98130000    -1.73940000   -40.60000000
   81.96570000    -1.76140000   -38.80000000
   81.95010000    -1.78330000   -36.80000000
   81.91880000    -1.82730000   -35.50000000
   81.90260000    -1.84970000   -34.80000000
   81.88640000    -1.87200000   -33.80000000
   81.87020000    -1.89440000   -34.00000000
   81.85400000    -1.91680000   -34.00000000
   81.83780000    -1.93920000   -33.30000000
   81.82160000    -1.96150000   -33.30000000
   81.80540000    -1.98280000   -33.50000000
   81.78920000    -2.00390000   -34.50000000
   81.77300000    -2.02500000   -35.80000000
   81.75690000    -2.04600000   -37.80000000
   81.74060000    -2.06740000   -39.80000000
   81.72410000    -2.08930000   -41.00000000
   81.70760000    -2.11110000   -42.10000000
   81.69110000    -2.13300000   -43.30000000
   81.67460000    -2.15490000   -43.50000000
   81.65810000    -2.17680000   -43.60000000
   81.62530000    -2.22020000   -44.50000000
   81.60890000    -2.24170000   -43.50000000
   81.59330000    -2.26380000   -38.60000000
   81.57850000    -2.28660000   -36.80000000
   81.56370000    -2.30950000   -36.00000000
   81.53790000    -2.38530000   -34.60000000
   81.53240000    -2.41180000   -35.80000000
   81.52680000    -2.43820000   -37.10000000
   81.52130000    -2.46470000   -36.30000000
   81.51390000    -2.51630000   -37.00000000
   81.51320000    -2.52810000   -36.00000000
   81.51250000    -2.53990000   -36.10000000
   81.51180000    -2.55170000   -36.30000000
   81.51110000    -2.56350000   -37.30000000
   81.51030000    -2.57520000   -39.50000000
   81.50960000    -2.58700000   -40.50000000
   81.50890000    -2.59880000   -41.60000000
   81.50820000    -2.61060000   -42.80000000
   81.50740000    -2.62240000   -44.80000000
   81.50670000    -2.63420000   -46.00000000
   81.50600000    -2.64600000   -48.00000000
   81.50530000    -2.65780000   -48.10000000
   81.50460000    -2.66970000   -49.30000000
   81.50380000    -2.68160000   -50.50000000
   81.52450000    -2.68490000   -53.60000000
   81.53610000    -2.68540000   -53.60000000
   81.54770000    -2.68590000   -53.60000000
   81.55930000    -2.68640000   -54.60000000
   81.57090000    -2.68700000   -54.60000000
   81.57730000    -2.65820000   -52.30000000
   81.57650000    -2.64560000   -48.10000000
   81.57580000    -2.63290000   -49.00000000
   81.57510000    -2.62030000   -46.80000000
   81.57430000    -2.60770000   -43.80000000
   81.57360000    -2.59500000   -42.60000000
   81.57290000    -2.58240000   -40.50000000
   81.57210000    -2.56970000   -39.50000000
   81.57140000    -2.55710000   -37.30000000
   81.57070000    -2.54440000   -36.10000000
   81.56990000    -2.53180000   -36.00000000
   81.56960000    -2.50610000   -31.30000000
   81.56980000    -2.49310000   -31.30000000
   81.57000000    -2.48020000   -31.10000000
   81.57020000    -2.46720000   -31.00000000
   81.57040000    -2.45420000   -31.90000000
   81.57080000    -2.42630000   -33.80000000
   81.57100000    -2.41140000   -34.60000000
   81.57120000    -2.39640000   -35.50000000
   81.60740000    -2.38830000   -37.00000000
   81.62250000    -2.38870000   -37.00000000
   81.63750000    -2.38900000   -37.00000000
   81.64000000    -2.43380000   -39.30000000
   81.64040000    -2.44950000   -38.30000000
   81.64090000    -2.46510000   -38.50000000
   81.64130000    -2.48080000   -37.60000000
   81.64170000    -2.49640000   -38.80000000
   81.64210000    -2.51210000   -39.80000000
   81.64250000    -2.52770000   -40.00000000
   81.64300000    -2.54340000   -41.10000000
   81.64340000    -2.55900000   -42.30000000
   81.64380000    -2.57470000   -43.50000000
   81.64420000    -2.59040000   -45.50000000
   81.64460000    -2.60550000   -47.80000000
   81.60970000    -2.52790000   -42.00000000
   81.60940000    -2.54270000   -37.00000000
   81.60410000    -2.58600000   -47.00000000
   81.59870000    -2.61100000   -50.30000000
   81.59340000    -2.63600000   -52.50000000
   81.58800000    -2.66100000   -53.60000000
   81.57670000    -2.71320000   -54.60000000
   81.56310000    -2.77630000   -57.50000000
   81.55730000    -2.80140000   -59.10000000
   81.55110000    -2.82670000   -59.30000000
   81.54490000    -2.85210000   -59.50000000
   81.53870000    -2.87740000   -59.80000000
   81.53250000    -2.90280000   -60.00000000
   81.52630000    -2.92810000   -60.30000000
   81.52010000    -2.95350000   -60.50000000
   81.51390000    -2.97880000   -60.80000000
   81.50770000    -3.00420000   -61.00000000
   81.50150000    -3.02960000   -60.10000000
   81.49520000    -3.05480000   -61.50000000
   81.48860000    -3.07960000   -60.60000000
   81.48200000    -3.10440000   -61.00000000
   81.47540000    -3.12910000   -62.10000000
   81.46880000    -3.15390000   -62.50000000
   81.45560000    -3.20370000   -62.00000000
   81.44900000    -3.22860000   -63.30000000
   81.44240000    -3.25360000   -65.60000000
   81.43580000    -3.27860000   -66.90000000
   81.42910000    -3.30350000   -68.10000000
   81.42220000    -3.32870000   -69.80000000
   81.38860000    -3.45450000   -66.20000000
   81.38330000    -3.47920000   -66.50000000
   81.37790000    -3.50380000   -66.80000000
   81.37260000    -3.52840000   -68.00000000
   81.36730000    -3.55300000   -69.30000000
   81.36190000    -3.57760000   -68.60000000
   81.35660000    -3.60220000   -67.90000000
   81.34590000    -3.65160000   -68.50000000
   81.34060000    -3.67630000   -69.80000000
   81.33520000    -3.70100000   -71.10000000
   81.32990000    -3.72570000   -72.40000000
   81.32450000    -3.75040000   -73.70000000
   81.31920000    -3.77510000   -73.90000000
   81.31380000    -3.79980000   -74.20000000
   81.30850000    -3.82450000   -73.50000000
   81.30310000    -3.84920000   -73.80000000
   81.29780000    -3.87390000   -74.10000000
   81.29240000    -3.89860000   -74.40000000
   81.28710000    -3.92330000   -73.70000000
   81.28170000    -3.94800000   -74.00000000
   81.27640000    -3.97280000   -74.30000000
   81.27100000    -3.99750000   -72.60000000
   81.26560000    -4.02220000   -72.90000000
   81.26030000    -4.04690000   -73.20000000
   81.24960000    -4.09640000   -72.90000000
   81.24420000    -4.12120000   -73.20000000
   81.23880000    -4.14600000   -71.50000000
   81.23350000    -4.17080000   -69.80000000
   81.22810000    -4.19560000   -68.10000000
   81.22270000    -4.22040000   -67.40000000
   81.21090000    -4.27020000   -67.80000000
   81.20450000    -4.29530000   -65.10000000
   81.19810000    -4.32040000   -63.30000000
   81.19170000    -4.34550000   -62.80000000
   81.18530000    -4.37050000   -61.00000000
   81.17890000    -4.39560000   -60.30000000
   81.17250000    -4.42070000   -59.60000000
   81.16620000    -4.44570000   -58.00000000
   81.15980000    -4.47080000   -57.30000000
   81.15340000    -4.49590000   -54.60000000
   81.14060000    -4.54570000   -54.10000000
   81.13430000    -4.57040000   -52.50000000
   81.12800000    -4.59510000   -50.80000000
   81.12170000    -4.61980000   -49.10000000
   81.11530000    -4.64450000   -48.50000000
   81.10900000    -4.66920000   -48.80000000
   81.10270000    -4.69390000   -49.30000000
   81.09640000    -4.71860000   -50.60000000
   81.09000000    -4.74340000   -50.00000000
   81.08370000    -4.76810000   -51.30000000
   81.07740000    -4.79300000   -52.80000000
   81.06470000    -4.84400000   -54.50000000
   81.05840000    -4.86940000   -56.80000000
   81.05210000    -4.89470000   -60.30000000
   81.04580000    -4.92010000   -62.60000000
   81.03950000    -4.94550000   -64.10000000
   81.03320000    -4.97080000   -64.50000000
   81.02690000    -4.99620000   -66.90000000
   81.02060000    -5.02150000   -69.30000000
   81.01430000    -5.04690000   -70.70000000
   81.00800000    -5.07230000   -72.20000000
   81.00170000    -5.09760000   -72.60000000
   80.99040000    -5.14880000   -78.30000000
   80.98510000    -5.17440000   -75.60000000
   80.96920000    -5.24970000   -75.00000000
   80.95940000    -5.32520000   -73.20000000
   80.95730000    -5.35040000   -73.60000000
   80.95510000    -5.37560000   -72.00000000
   80.95300000    -5.40090000   -72.40000000
   80.95090000    -5.42610000   -71.80000000
   80.94850000    -5.45130000   -72.30000000
   80.94590000    -5.47640000   -71.70000000
   80.94340000    -5.50160000   -72.10000000
   80.94090000    -5.52670000   -71.60000000
   80.93840000    -5.55190000   -70.00000000
   80.93590000    -5.57700000   -70.10000000
   80.93340000    -5.60190000   -69.50000000
   80.93100000    -5.62690000   -70.00000000
   80.92860000    -5.65190000   -71.40000000
   80.92620000    -5.67680000   -70.80000000
   80.92380000    -5.70180000   -69.30000000
   80.91900000    -5.75050000   -67.90000000
   80.91670000    -5.77420000   -66.30000000
   80.91440000    -5.79800000   -64.70000000
   80.91210000    -5.82180000   -64.40000000
   80.91000000    -5.84600000   -63.80000000
   80.90800000    -5.87020000   -64.30000000
   80.90590000    -5.89430000   -65.70000000
   80.90390000    -5.91850000   -66.20000000
   80.90180000    -5.94270000   -65.60000000
   80.89970000    -5.96680000   -65.00000000
   80.89670000    -5.99060000   -67.60000000
   80.89350000    -6.01420000   -66.00000000
   80.89030000    -6.03780000   -66.50000000
   80.88700000    -6.06140000   -65.90000000
   80.88380000    -6.08510000   -65.30000000
   80.88060000    -6.10870000   -64.80000000
   80.87730000    -6.13230000   -64.20000000
   80.87080000    -6.17980000   -64.20000000
   80.86760000    -6.20360000   -64.60000000
   80.86190000    -6.25160000   -63.30000000
   80.85950000    -6.27570000   -62.80000000
   80.85710000    -6.29990000   -62.30000000
   80.85460000    -6.32400000   -61.60000000
   80.85220000    -6.34810000   -60.10000000
   80.84980000    -6.37220000   -59.60000000
   80.84740000    -6.39630000   -59.00000000
   80.84490000    -6.42050000   -58.50000000
   80.84010000    -6.46850000   -58.50000000
   80.83580000    -6.51720000   -54.80000000
   80.83400000    -6.54190000   -54.30000000
   80.83220000    -6.56650000   -53.80000000
   80.83030000    -6.59120000   -52.30000000
   80.82660000    -6.56760000   -53.60000000
   80.82670000    -6.57710000   -52.80000000
   80.82680000    -6.58660000   -52.00000000
   80.82700000    -6.59610000   -51.30000000
   80.82710000    -6.60570000   -50.50000000
   80.82720000    -6.61520000   -49.50000000
   80.82740000    -6.62470000   -49.80000000
   80.82750000    -6.63420000   -50.00000000
   80.82770000    -6.64370000   -48.10000000
   80.82780000    -6.65330000   -48.30000000
   80.82740000    -6.66220000   -47.30000000
   80.82690000    -6.67090000   -47.50000000
   80.82640000    -6.67970000   -46.60000000
   80.82500000    -6.69780000   -46.50000000
   80.82390000    -6.70760000   -47.80000000
   80.82280000    -6.71730000   -47.00000000
   80.82170000    -6.72700000   -45.10000000
   80.82060000    -6.73670000   -45.30000000
   80.81950000    -6.74650000   -44.50000000
   80.81840000    -6.75620000   -43.80000000
   80.81730000    -6.76590000   -45.00000000
   80.81620000    -6.77560000   -42.00000000
   80.81510000    -6.78540000   -40.30000000
   80.81400000    -6.79510000   -39.50000000
   80.81290000    -6.80480000   -40.60000000
   80.81180000    -6.81450000   -39.80000000
   80.81070000    -6.82430000   -39.00000000
   80.80960000    -6.83400000   -38.30000000
   80.80840000    -6.84370000   -38.50000000
   80.80740000    -6.85340000   -38.60000000
   80.80510000    -6.87370000   -37.10000000
   80.80400000    -6.88430000   -37.30000000
   80.80290000    -6.89490000   -37.50000000
   80.80180000    -6.90550000   -35.80000000
   80.80070000    -6.91610000   -35.00000000
   80.80060000    -6.92640000   -32.00000000
   80.80060000    -6.93680000   -31.30000000
   80.80070000    -6.94710000   -31.50000000
   80.80080000    -6.95750000   -31.80000000
   80.80080000    -6.96780000   -31.90000000
   80.80090000    -6.97810000   -32.10000000
   80.80100000    -6.98850000   -31.30000000
   80.80100000    -6.99880000   -31.60000000
   80.80110000    -7.00920000   -32.80000000
   80.70600000    -6.81500000   -45.60000000
   80.70280000    -6.83920000   -42.10000000
   80.69950000    -6.86340000   -38.50000000
   80.69620000    -6.88760000   -37.00000000
   80.69300000    -6.91180000   -36.50000000
   80.68970000    -6.93590000   -38.10000000
   80.68640000    -6.96010000   -38.60000000
   80.68320000    -6.98430000   -40.10000000
   80.67990000    -7.00850000   -39.60000000
   80.67660000    -7.03270000   -38.30000000
   80.67340000    -7.05690000   -37.80000000
   80.67010000    -7.08110000   -35.30000000
   80.66680000    -7.10530000   -35.80000000
   80.66360000    -7.12950000   -37.30000000
   80.65720000    -7.17680000   -40.00000000
   80.65410000    -7.20000000   -40.50000000
   80.65090000    -7.22320000   -40.00000000
   80.64780000    -7.24640000   -41.50000000
   80.64470000    -7.26950000   -42.00000000
   80.64160000    -7.29270000   -41.50000000
   80.63830000    -7.31610000   -40.80000000
   80.63490000    -7.33950000   -43.30000000
   80.63150000    -7.36300000   -43.80000000
   80.62810000    -7.38640000   -44.50000000
   80.62470000    -7.40980000   -47.00000000
   80.62140000    -7.43330000   -50.50000000
   80.61800000    -7.45670000   -51.00000000
   80.61460000    -7.48020000   -50.60000000
   80.61120000    -7.50360000   -50.10000000
   80.60780000    -7.52710000   -49.60000000
   80.60440000    -7.55050000   -49.30000000
   80.59770000    -7.59710000   -51.30000000
   80.59430000    -7.62030000   -51.80000000
   80.59100000    -7.64350000   -54.30000000
   80.58760000    -7.66660000   -55.80000000
   80.58430000    -7.68980000   -54.50000000
   80.58090000    -7.71300000   -53.00000000
   80.57760000    -7.73620000   -52.50000000
   80.57420000    -7.75930000   -53.00000000
   80.57080000    -7.78250000   -54.60000000
   80.56290000    -7.82930000   -60.00000000
   80.55840000    -7.85280000   -58.50000000
   80.55380000    -7.87640000   -58.00000000
   80.54920000    -7.90000000   -58.60000000
   80.54460000    -7.92350000   -59.50000000
   80.54000000    -7.94680000   -60.00000000
   80.53530000    -7.97010000   -60.60000000
   80.52580000    -8.01760000   -59.10000000
   80.52100000    -8.04180000   -56.60000000
   80.51630000    -8.06590000   -55.30000000
   80.51150000    -8.09010000   -53.80000000
   80.50670000    -8.11430000   -52.50000000
   80.50190000    -8.13850000   -52.00000000
   80.49710000    -8.16270000   -50.60000000
   80.49220000    -8.18640000   -49.50000000
   80.48740000    -8.20980000   -47.00000000
   80.48250000    -8.23320000   -46.50000000
   80.46790000    -8.30330000   -44.00000000
   80.46300000    -8.32670000   -43.50000000
   80.45820000    -8.35010000   -42.00000000
   80.45330000    -8.37350000   -40.60000000
   80.44840000    -8.39690000   -41.30000000
   80.44360000    -8.42030000   -40.80000000
   80.43860000    -8.44390000   -40.30000000
   80.43350000    -8.46810000   -40.80000000
   80.42830000    -8.49240000   -40.50000000
   80.42320000    -8.51660000   -41.10000000
   80.41800000    -8.54090000   -41.80000000
   80.40870000    -8.54130000   -35.10000000
   80.40450000    -8.51750000   -31.40000000
   80.40030000    -8.49370000   -29.80000000
   80.39620000    -8.46990000   -28.10000000
   80.39200000    -8.44610000   -26.50000000
   80.38870000    -8.42100000   -22.90000000
   80.38560000    -8.39550000   -25.30000000
   80.38260000    -8.37000000   -27.80000000
   80.37950000    -8.34460000   -30.10000000
   80.37640000    -8.31910000   -32.50000000
   80.37340000    -8.29360000   -35.80000000
   80.37030000    -8.26820000   -38.30000000
   80.36720000    -8.24270000   -38.60000000
   80.36420000    -8.21720000   -39.00000000
   80.36110000    -8.19180000   -41.30000000
   80.35920000    -8.16660000   -41.00000000
   80.35750000    -8.14150000   -43.50000000
   80.35420000    -8.09150000   -45.10000000
   80.35250000    -8.06660000   -46.50000000
   80.35090000    -8.04170000   -47.00000000
   80.34920000    -8.01680000   -48.30000000
   80.34760000    -7.99200000   -47.80000000
   80.34590000    -7.96710000   -46.10000000
   80.34430000    -7.94220000   -46.50000000
   80.34260000    -7.91730000   -47.00000000
   80.34100000    -7.89240000   -46.30000000
   80.33930000    -7.86750000   -46.80000000
   80.33770000    -7.84260000   -48.10000000
   80.33600000    -7.81770000   -50.50000000
   80.33440000    -7.79280000   -52.00000000
   80.33270000    -7.76790000   -52.30000000
   80.33110000    -7.74300000   -51.80000000
   80.32940000    -7.71810000   -52.30000000
   80.32780000    -7.69320000   -51.60000000
   80.32450000    -7.64360000   -51.50000000
   80.32280000    -7.61890000   -51.80000000
   80.32120000    -7.59420000   -51.30000000
   80.31960000    -7.56940000   -51.60000000
   80.31790000    -7.54470000   -52.10000000
   80.31630000    -7.52000000   -51.50000000
   80.31470000    -7.49530000   -51.00000000
   80.31300000    -7.47060000   -49.30000000
   80.31140000    -7.44590000   -47.80000000
   80.30980000    -7.42120000   -47.30000000
   80.30820000    -7.39640000   -46.60000000
   80.30650000    -7.37170000   -45.00000000
   80.30490000    -7.34700000   -44.50000000
   80.30330000    -7.32230000   -42.00000000
   80.30160000    -7.29760000   -39.30000000
   80.30000000    -7.27290000   -37.80000000
   80.29870000    -7.24780000   -37.50000000
   80.29680000    -7.19700000   -38.50000000
   80.29580000    -7.17140000   -36.80000000
   80.29480000    -7.14580000   -33.30000000
   80.29380000    -7.12020000   -31.60000000
   80.29280000    -7.09470000   -30.10000000
   80.29180000    -7.06910000   -29.50000000
   80.29070000    -7.04350000   -30.00000000
   80.28970000    -7.01790000   -30.40000000
   80.28870000    -6.99240000   -28.80000000
   80.28770000    -6.96680000   -27.30000000
   80.28670000    -6.94120000   -25.80000000
   80.28570000    -6.91570000   -24.30000000
   80.28470000    -6.89010000   -23.60000000
   80.28370000    -6.86450000   -23.10000000
   80.28270000    -6.83890000   -24.50000000
   80.28170000    -6.81340000   -25.00000000
   80.28070000    -6.78780000   -26.50000000
   80.27870000    -6.73670000   -27.40000000
   80.27770000    -6.71110000   -27.90000000
   80.27670000    -6.68550000   -29.40000000
   80.27570000    -6.65990000   -28.90000000
   80.27470000    -6.63440000   -30.40000000
   80.27370000    -6.60880000   -29.80000000
   80.27270000    -6.58320000   -31.30000000
   80.27170000    -6.55760000   -33.80000000
   80.27070000    -6.53210000   -37.50000000
   80.26970000    -6.50650000   -41.00000000
   80.26770000    -6.45540000   -43.00000000
   80.26670000    -6.42980000   -43.50000000
   80.26570000    -6.40370000   -44.80000000
   80.26480000    -6.37750000   -47.30000000
   80.26380000    -6.35130000   -47.80000000
   80.26280000    -6.32510000   -50.30000000
   80.26090000    -6.27270000   -51.30000000
   80.25990000    -6.24650000   -50.80000000
   80.25890000    -6.22030000   -51.30000000
   80.25790000    -6.19410000   -53.80000000
   80.25700000    -6.16790000   -54.30000000
   80.25470000    -6.11670000   -54.30000000
   80.25340000    -6.09170000   -55.80000000
   80.25220000    -6.06680000   -56.30000000
   80.25090000    -6.04180000   -55.80000000
   80.24960000    -6.01680000   -56.30000000
   80.24840000    -5.99180000   -55.80000000
   80.24710000    -5.96690000   -55.50000000
   80.24580000    -5.94190000   -55.00000000
   80.24450000    -5.91690000   -52.50000000
   80.24330000    -5.89200000   -53.00000000
   80.23930000    -5.81650000   -50.80000000
   80.23790000    -5.79130000   -50.50000000
   80.23660000    -5.76620000   -50.00000000
   80.23510000    -5.74090000   -52.50000000
   80.23300000    -5.71540000   -51.00000000
   80.23090000    -5.68990000   -51.50000000
   80.22890000    -5.66440000   -51.00000000
   80.22680000    -5.63890000   -51.60000000
   80.22470000    -5.61330000   -52.10000000
   80.22070000    -5.56270000   -55.10000000
   80.21230000    -5.46270000   -51.80000000
   80.20980000    -5.43810000   -53.30000000
   80.20730000    -5.41360000   -55.00000000
   80.20230000    -5.36440000   -57.30000000
   80.19970000    -5.33970000   -56.80000000
   80.19720000    -5.31510000   -56.50000000
   80.19470000    -5.29040000   -58.00000000
   80.19220000    -5.26580000   -58.60000000
   80.18960000    -5.24110000   -59.30000000
   80.18710000    -5.21650000   -59.80000000
   80.18460000    -5.19190000   -60.50000000
   80.18210000    -5.16720000   -60.00000000
   80.17960000    -5.14260000   -62.60000000
   80.17700000    -5.11790000   -64.40000000
   80.17450000    -5.09330000   -66.00000000
   80.17200000    -5.06860000   -67.60000000
   80.16950000    -5.04400000   -68.20000000
   80.16690000    -5.01930000   -67.90000000
   80.16440000    -4.99470000   -68.50000000
   80.16190000    -4.97000000   -68.10000000
   80.15690000    -4.92070000   -68.40000000
   80.15430000    -4.89610000   -67.00000000
   80.15180000    -4.87150000   -67.60000000
   80.14930000    -4.84680000   -66.20000000
   80.14680000    -4.82220000   -64.80000000
   80.14430000    -4.79750000   -65.50000000
   80.14170000    -4.77290000   -64.10000000
   80.13920000    -4.74820000   -62.60000000
   80.13670000    -4.72360000   -61.30000000
   80.13420000    -4.69890000   -59.00000000
   80.13230000    -4.67450000   -55.50000000
   80.13050000    -4.65010000   -54.10000000
   80.12870000    -4.62580000   -50.80000000
   80.12700000    -4.60140000   -48.30000000
   80.12520000    -4.57710000   -44.00000000
   80.12340000    -4.55270000   -40.60000000
   80.12170000    -4.52830000   -37.30000000
   80.11810000    -4.47960000   -34.50000000
   80.11640000    -4.45530000   -31.10000000
   80.11460000    -4.43090000   -27.80000000
   80.11280000    -4.40650000   -23.40000000
   80.11110000    -4.38220000   -21.00000000
   80.10930000    -4.35780000   -18.80000000
   80.10760000    -4.33340000   -15.40000000
   80.10580000    -4.30910000   -12.10000000
   80.10400000    -4.28470000   -10.70000000
   80.10230000    -4.26040000   -10.40000000
   80.10050000    -4.23600000    -9.10000000
   80.09870000    -4.21160000    -7.70000000
   80.09700000    -4.18730000    -8.40000000
   80.09520000    -4.16290000    -8.10000000
   80.09290000    -4.13860000   -10.30000000
   80.09020000    -4.11440000    -9.90000000
   80.08750000    -4.09010000    -9.70000000
   80.08220000    -4.04260000    -9.80000000
   80.07960000    -4.01930000   -11.60000000
   80.07700000    -3.99590000   -14.30000000
   80.07430000    -3.97260000   -14.90000000
   80.07170000    -3.94930000   -17.80000000
   80.06910000    -3.92600000   -20.40000000
   80.06400000    -3.87810000   -24.80000000
   80.06140000    -3.85350000   -26.40000000
   80.05890000    -3.82890000   -29.10000000
   80.05640000    -3.80430000   -31.90000000
   80.05300000    -3.78000000   -37.10000000
   80.04920000    -3.75580000   -40.00000000
   80.04530000    -3.73160000   -43.60000000
   80.04150000    -3.70740000   -45.50000000
   80.03770000    -3.68320000   -48.10000000
   80.03380000    -3.65900000   -48.80000000
   80.02620000    -3.61080000   -53.30000000
   80.02230000    -3.58690000   -55.00000000
   80.01850000    -3.56300000   -55.80000000
   80.01470000    -3.53910000   -57.50000000
   80.01090000    -3.51510000   -58.30000000
   80.00710000    -3.49120000   -59.00000000
   80.00330000    -3.46730000   -59.80000000
   79.99940000    -3.44340000   -60.50000000
   79.99560000    -3.41940000   -61.30000000
   79.99180000    -3.39550000   -60.00000000
   79.98800000    -3.37160000   -58.80000000
   79.98420000    -3.34770000   -58.50000000
   79.98040000    -3.32370000   -58.30000000
   79.97660000    -3.29910000   -58.00000000
   79.97270000    -3.27410000   -57.80000000
   79.96890000    -3.24910000   -58.50000000
   79.96510000    -3.22400000   -59.30000000
   79.95750000    -3.17380000   -60.80000000
   79.95370000    -3.14860000   -60.50000000
   79.94990000    -3.12340000   -61.30000000
   79.94610000    -3.09810000   -62.10000000
   79.94230000    -3.07290000   -61.80000000
   79.93840000    -3.04770000   -62.60000000
   79.93580000    -3.02340000   -59.50000000
   79.93340000    -2.99920000   -60.30000000
   79.93100000    -2.97510000   -62.10000000
   79.92860000    -2.95090000   -65.00000000
   79.92620000    -2.92680000   -64.80000000
   79.92380000    -2.90270000   -63.50000000
   79.92140000    -2.87850000   -64.40000000
   79.91900000    -2.85440000   -64.10000000
   79.91660000    -2.83020000   -64.90000000
   79.91420000    -2.80610000   -64.70000000
   79.91180000    -2.78200000   -63.50000000
   79.90700000    -2.73370000   -63.00000000
   79.90460000    -2.70950000   -62.80000000
   79.90220000    -2.68540000   -62.60000000
   79.89980000    -2.66130000   -62.50000000
   79.89740000    -2.63710000   -62.30000000
   79.89500000    -2.61300000   -64.10000000
   79.89260000    -2.58890000   -63.80000000
   79.89020000    -2.56470000   -64.70000000
   79.88780000    -2.54060000   -64.50000000
   79.88540000    -2.51640000   -65.30000000
   79.88300000    -2.49230000   -65.20000000
   79.88060000    -2.46820000   -64.00000000
   79.87860000    -2.44320000   -63.30000000
   79.87670000    -2.41810000   -63.30000000
   79.87480000    -2.39300000   -63.00000000
   79.87290000    -2.36790000   -63.80000000
   79.87100000    -2.34280000   -64.70000000
   79.86720000    -2.29260000   -67.40000000
   79.86530000    -2.26750000   -68.20000000
   79.86340000    -2.24240000   -69.00000000
   79.86150000    -2.21730000   -69.90000000
   79.85970000    -2.19210000   -68.00000000
   79.85850000    -2.16690000   -67.80000000
   79.85730000    -2.14170000   -69.60000000
   79.85600000    -2.11640000   -72.50000000
   79.85480000    -2.09120000   -72.30000000
   79.85360000    -2.06570000   -72.70000000
   79.85260000    -2.04010000   -73.50000000
   79.85150000    -2.01440000   -74.40000000
   79.85040000    -1.98880000   -74.20000000
   79.84930000    -1.96320000   -74.10000000
   79.84830000    -1.93760000   -74.90000000
   79.84720000    -1.91200000   -74.80000000
   79.84610000    -1.88640000   -74.60000000
   79.84400000    -1.83500000   -74.40000000
   79.84290000    -1.80920000   -75.20000000
   79.84220000    -1.78400000   -74.80000000
   79.84150000    -1.75890000   -74.70000000
   79.84090000    -1.73390000   -75.60000000
   79.84030000    -1.70890000   -76.40000000
   79.83970000    -1.68390000   -76.30000000
   79.83900000    -1.65880000   -76.20000000
   79.83840000    -1.63380000   -77.10000000
   79.83650000    -1.55870000   -77.10000000
   79.83590000    -1.53370000   -76.00000000
   79.83530000    -1.50870000   -75.80000000
   79.83480000    -1.48080000   -75.20000000
   79.83440000    -1.45210000   -75.10000000
   79.83390000    -1.42350000   -75.00000000
   79.99530000    -1.37260000   -71.30000000
   80.02400000    -1.37310000   -70.30000000
   80.05260000    -1.37360000   -68.30000000
   80.08120000    -1.37400000   -67.30000000
   80.10980000    -1.37450000   -67.30000000
   80.13850000    -1.37500000   -66.30000000
   80.16710000    -1.37550000   -66.30000000
   80.19570000    -1.37590000   -66.30000000
   80.22430000    -1.37640000   -66.30000000
   80.25290000    -1.37690000   -65.20000000
   80.28160000    -1.37740000   -65.30000000
   80.31020000    -1.37780000   -66.30000000
   80.36760000    -1.37880000   -69.80000000
   80.39640000    -1.37930000   -71.80000000
   80.42520000    -1.37970000   -71.80000000
   80.45400000    -1.38020000   -71.80000000
   80.48290000    -1.38070000   -73.90000000
   80.51170000    -1.38120000   -75.90000000
   80.54050000    -1.38160000   -76.90000000
   80.56930000    -1.38210000   -77.90000000
   80.59810000    -1.38230000   -78.10000000
   80.62680000    -1.38120000   -77.10000000
   80.65560000    -1.38020000   -77.10000000
   80.68430000    -1.37910000   -78.10000000
   80.71300000    -1.37810000   -79.10000000
   80.74180000    -1.37700000   -80.10000000
   80.88580000    -1.37180000   -80.20000000
   80.91490000    -1.37070000   -79.20000000
   80.94340000    -1.37000000   -79.80000000
   80.98020000    -1.33960000   -77.00000000
   80.98300000    -1.32400000   -76.00000000
   80.98590000    -1.30840000   -75.90000000
   80.98870000    -1.29280000   -75.80000000
   80.99160000    -1.27720000   -74.80000000
   80.99440000    -1.26160000   -73.70000000
   80.99730000    -1.24600000   -72.60000000
   80.96810000    -1.24280000   -80.20000000
   80.96980000    -1.25350000   -80.20000000
   80.97160000    -1.26430000   -79.20000000
   80.97330000    -1.27500000   -80.30000000
   80.97510000    -1.28570000   -79.30000000
   80.97690000    -1.29650000   -79.40000000
   80.97860000    -1.30720000   -79.40000000
   80.98050000    -1.31810000   -79.60000000
   80.98260000    -1.32910000   -80.70000000
   80.98460000    -1.34010000   -81.70000000
   80.98670000    -1.35110000   -82.80000000
   80.98880000    -1.36210000   -82.80000000
   80.99670000    -1.40500000   -82.30000000
   80.99870000    -1.41570000   -83.30000000
   81.00250000    -1.43730000   -81.80000000
   81.00430000    -1.44830000   -82.80000000
   81.06240000    -1.43150000   -78.70000000
   81.06430000    -1.41720000   -77.60000000
   81.06610000    -1.40300000   -77.60000000
   80.82050000    -1.38220000   -75.00000000
   80.79790000    -1.38030000   -76.00000000
   80.77530000    -1.37830000   -77.00000000
   80.75270000    -1.37640000   -76.00000000
   80.73010000    -1.37450000   -75.00000000
   80.70750000    -1.37260000   -74.90000000
   80.68480000    -1.37070000   -74.90000000
   80.66220000    -1.36880000   -74.90000000
   80.61650000    -1.36500000   -75.30000000
   80.59340000    -1.36310000   -74.20000000
   80.57030000    -1.36120000   -72.20000000
   80.54720000    -1.35930000   -72.20000000
   80.52400000    -1.35730000   -72.20000000
   80.50090000    -1.35540000   -71.20000000
   80.47780000    -1.35350000   -70.20000000
   80.45470000    -1.35160000   -69.10000000
   80.43160000    -1.34960000   -68.10000000
   80.40850000    -1.34770000   -67.10000000
   80.38540000    -1.34580000   -66.10000000
   80.36220000    -1.34390000   -64.10000000
   80.33910000    -1.34200000   -62.00000000
   80.31600000    -1.34000000   -60.00000000
   80.29290000    -1.33810000   -60.00000000
   80.23060000    -1.33260000   -55.80000000
   80.20680000    -1.33070000   -56.80000000
   80.18300000    -1.32870000   -55.80000000
   80.15920000    -1.32680000   -56.80000000
   80.13540000    -1.32480000   -57.80000000
   80.11160000    -1.32290000   -57.80000000
   80.08780000    -1.32090000   -58.80000000
   80.06400000    -1.31900000   -59.80000000
   80.04020000    -1.31710000   -61.80000000
   80.01640000    -1.31510000   -63.80000000
   79.99260000    -1.31320000   -64.80000000
   79.96880000    -1.31120000   -65.80000000
   79.94440000    -1.30920000   -69.60000000
   79.91990000    -1.30720000   -70.60000000
   79.89550000    -1.30510000   -71.60000000
   79.86450000    -1.25050000   -72.70000000
   79.86130000    -1.22420000   -70.50000000
   79.85800000    -1.19790000   -68.40000000
   79.85480000    -1.17160000   -66.30000000
   79.85180000    -1.14440000   -63.50000000
   79.84870000    -1.11700000   -63.50000000
   79.84570000    -1.08960000   -63.30000000
   79.82620000    -0.98230000   -61.30000000
   79.82200000    -0.95560000   -61.10000000
   79.81780000    -0.92880000   -61.00000000
   79.81350000    -0.90210000   -60.00000000
   79.80920000    -0.87550000   -61.30000000
   79.80490000    -0.84910000   -60.30000000
   79.80050000    -0.82280000   -60.10000000
   79.79610000    -0.79640000   -60.10000000
   79.79170000    -0.77010000   -59.00000000
   79.78740000    -0.74370000   -58.00000000
   79.78300000    -0.71730000   -59.00000000
   79.77860000    -0.69100000   -59.80000000
   79.77420000    -0.66460000   -59.80000000
   79.76980000    -0.63830000   -59.80000000
   79.76550000    -0.61190000   -60.80000000
   79.75310000    -0.53340000   -59.80000000
   79.74940000    -0.50700000   -60.80000000
   79.74560000    -0.48060000   -60.80000000
   79.74190000    -0.45420000   -60.80000000
   79.73810000    -0.42780000   -61.80000000
   79.73440000    -0.40130000   -62.60000000
   79.73060000    -0.37490000   -62.60000000
   79.72690000    -0.34850000   -63.60000000
   79.72320000    -0.32210000   -63.60000000
   79.71940000    -0.29570000   -64.70000000
   79.71560000    -0.26950000   -65.10000000
   79.71170000    -0.24370000   -66.10000000
   79.70780000    -0.21780000   -66.00000000
   79.70390000    -0.19200000   -65.00000000
   79.70000000    -0.16620000   -66.00000000
   79.69610000    -0.14040000   -66.00000000
   79.68840000    -0.08920000   -62.50000000
   79.68460000    -0.06390000   -62.50000000
   79.68080000    -0.03860000   -61.50000000
   79.67700000    -0.01330000   -60.50000000
   79.67320000     0.01200000   -60.50000000
   79.66940000     0.03730000   -58.50000000
   79.66560000     0.06260000   -58.50000000
   79.66190000     0.08790000   -59.50000000
   79.65830000     0.11290000   -59.50000000
   79.65560000     0.13670000   -61.50000000
   79.65300000     0.16050000   -61.50000000
   79.65030000     0.18440000   -60.50000000
   79.69850000     0.34090000   -59.50000000
   79.68660000     0.35100000   -60.50000000
   79.67470000     0.36100000   -59.50000000
   79.66270000     0.37110000   -58.50000000
   79.63810000     0.39100000   -58.60000000
   79.62540000     0.40080000   -59.60000000
   79.61270000     0.41060000   -59.60000000
   79.60000000     0.42050000   -58.60000000
   79.57380000     0.44410000   -54.80000000
   79.56970000     0.44970000   -55.80000000
   79.56550000     0.45540000   -57.80000000
   79.56870000     0.48170000   -59.80000000
   79.57100000     0.49570000   -58.80000000
   79.57320000     0.50970000   -57.80000000
   79.57550000     0.52370000   -56.80000000
