   60.21180000     5.87448000     3.50000000
   60.22760000     5.87689000     5.70000000
   60.24360000     5.87929000     8.10000000
   60.26000000     5.88158000     8.60000000
   60.27640000     5.88388000     8.70000000
   60.29290000     5.88605000     8.00000000
   60.30910000     5.88880000     7.40000000
   60.32530000     5.89218000     8.40000000
   60.34130000     5.89597000     7.60000000
   60.35740000     5.89980000     4.70000000
   60.37350000     5.90336000     3.00000000
   60.38960000     5.90685000     2.90000000
   60.40560000     5.91052000     3.50000000
   60.42160000     5.91430000     4.60000000
   60.43760000     5.91808000     6.30000000
   60.45360000     5.92186000     5.50000000
   60.46970000     5.92524000     6.30000000
   60.48580000     5.92862000     5.50000000
   60.50170000     5.93252000     6.80000000
   60.51770000     5.93653000     8.60000000
   60.53360000     5.94054000    12.70000000
   60.54960000     5.94449000    18.60000000
   60.56710000     5.94948000    23.50000000
   60.58460000     5.95481000    27.50000000
   60.60200000     5.96025000    31.60000000
   60.61930000     5.96564000    36.20000000
   60.63680000     5.97096000    39.90000000
   60.65420000     5.97572000    44.40000000
   60.67200000     5.97927000    49.80000000
   60.68980000     5.98208000    58.20000000
   60.70770000     5.98477000    64.70000000
   60.72570000     5.98752000    66.00000000
   60.74350000     5.99027000    62.60000000
   60.76150000     5.99308000    54.90000000
   60.77940000     5.99583000    45.30000000
   60.79740000     5.99847000    34.20000000
   60.81530000     6.00110000    21.30000000
   60.83330000     6.00408000     8.70000000
   60.87180000     6.02757000   -17.50000000
   60.87200000     6.04304000   -20.90000000
   60.87220000     6.05880000   -23.90000000
   60.87230000     6.07536000   -25.40000000
   60.87240000     6.09249000   -26.70000000
   60.87270000     6.10962000   -28.60000000
   60.87300000     6.12675000   -29.10000000
   60.87300000     6.14377000   -27.50000000
   60.87310000     6.16084000   -25.50000000
   60.87300000     6.17780000   -23.20000000
   60.87320000     6.19482000   -19.20000000
   60.86870000     6.21292000   -11.40000000
   60.86380000     6.23086000    -4.40000000
   60.85920000     6.24873000     1.00000000
   60.85470000     6.26661000     8.40000000
   60.85380000     6.28426000    17.40000000
   60.85290000     6.30185000    23.20000000
   60.85260000     6.31950000    28.00000000
   60.85230000     6.33714000    30.10000000
   60.85060000     6.40773000    24.60000000
   60.84970000     6.42538000    23.00000000
   60.84870000     6.44297000    23.10000000
   60.84770000     6.46056000    23.70000000
   60.84680000     6.47820000    23.60000000
   60.84590000     6.49579000    25.50000000
   60.84480000     6.51344000    25.40000000
   60.84360000     6.53109000    27.60000000
   60.84250000     6.54873000    28.60000000
   60.83640000     6.61783000    37.10000000
   60.83440000     6.63485000    35.50000000
   60.83400000     6.65181000    32.80000000
   60.83390000     6.66877000    32.30000000
   60.83380000     6.68573000    31.40000000
   60.83380000     6.70269000    31.90000000
   60.83390000     6.77076000    36.40000000
   60.83470000     6.78777000    34.90000000
   60.83540000     6.80479000    28.70000000
   60.83610000     6.82186000    22.20000000
   60.83690000     6.83894000    18.30000000
   60.83770000     6.85601000    16.00000000
   60.83860000     6.87303000    13.70000000
   60.83950000     6.89010000    12.90000000
   60.84020000     6.90712000    11.40000000
   60.84600000     7.00349000     2.50000000
   60.84560000     7.02045000     1.20000000
   60.84530000     7.03741000     1.80000000
   60.84510000     7.05431000     0.20000000
   60.84480000     7.07110000    -1.00000000
   60.84450000     7.08789000    -0.90000000
   60.84410000     7.10462000     0.10000000
   60.84370000     7.12135000     1.90000000
   60.84340000     7.13808000     1.70000000
   60.84410000     7.15504000     1.80000000
   60.84500000     7.17171000     0.00000000
   60.84570000     7.18838000    -1.20000000
   60.84650000     7.20500000    -2.30000000
   60.84740000     7.22167000    -3.70000000
   60.84840000     7.23829000    -3.40000000
   60.84950000     7.25496000    -4.70000000
   60.85060000     7.27164000    -4.60000000
   60.85150000     7.28831000    -4.10000000
   60.85240000     7.30498000    -2.50000000
   60.85340000     7.32165000     1.10000000
   60.85450000     7.33833000     3.70000000
   60.85530000     7.35500000     5.20000000
   60.85620000     7.37168000     4.80000000
   60.85730000     7.38841000     3.40000000
   60.85870000     7.40514000    -0.40000000
   60.86010000     7.42186000    -2.50000000
   60.86170000     7.43865000    -4.70000000
   60.86310000     7.45538000    -6.00000000
   60.86460000     7.47217000    -6.70000000
   60.86580000     7.48896000    -4.50000000
   60.86670000     7.50580000    -2.20000000
   60.86760000     7.52270000     1.50000000
   60.86860000     7.53961000     5.90000000
   60.86960000     7.55657000    11.10000000
   60.87000000     7.57335000    15.70000000
   60.87030000     7.59008000    17.10000000
   60.87050000     7.60682000    16.00000000
   60.87070000     7.62355000    14.70000000
   60.87110000     7.64033000    12.10000000
   60.87140000     7.65706000     9.70000000
   60.87170000     7.67379000     5.90000000
   60.87160000     7.69047000     2.30000000
   60.87130000     7.70720000    -1.20000000
   60.87110000     7.72393000    -5.20000000
   60.87080000     7.74066000    -6.70000000
   60.87060000     7.75739000    -8.90000000
   60.87040000     7.77406000    -9.70000000
   60.87010000     7.79079000   -10.70000000
   60.86980000     7.80752000   -10.70000000
   60.86950000     7.82431000   -11.20000000
   60.86920000     7.84104000   -10.80000000
   60.86890000     7.85777000    -9.20000000
   60.86860000     7.87445000    -7.70000000
   60.86830000     7.89118000    -5.40000000
   60.86810000     7.90791000    -4.30000000
   60.86770000     7.92464000    -3.90000000
   60.86810000     7.94177000    -2.80000000
   60.86850000     7.95861000    -0.30000000
   60.86880000     7.97546000     3.00000000
   60.87370000     7.99992000     6.70000000
   60.87510000     8.00038000     7.40000000
   60.87650000     8.00095000     8.10000000
   60.87800000     8.00153000     8.00000000
   60.87940000     8.00210000     8.40000000
   60.88080000     8.00267000     8.40000000
   60.88220000     8.00325000     8.60000000
   60.88360000     8.00387000     9.40000000
   60.88510000     8.00451000     9.40000000
   60.88660000     8.00514000     9.30000000
   60.88810000     8.00577000     9.00000000
   60.88950000     8.00640000     8.80000000
   60.89100000     8.00691000     8.70000000
   60.89370000     8.05338000    12.30000000
   60.89340000     8.06937000    11.70000000
   60.89300000     8.08604000    12.10000000
   60.89260000     8.10300000    12.60000000
   60.89210000     8.11996000    14.40000000
   60.89040000     8.13692000    17.20000000
   60.88820000     8.15388000    18.70000000
   60.88620000     8.17072000    18.40000000
   60.88410000     8.18757000    16.90000000
   60.88210000     8.20441000    15.50000000
   60.88010000     8.22120000    12.90000000
   60.87820000     8.23799000    12.80000000
   60.87640000     8.25483000    10.50000000
   60.87450000     8.27173000    11.60000000
   60.87270000     8.28858000    12.80000000
   60.87070000     8.30542000    15.10000000
   60.86880000     8.32227000    21.10000000
   60.86700000     8.33917000    24.20000000
   60.86510000     8.35602000    29.20000000
   60.86310000     8.37286000    33.20000000
   60.86120000     8.38965000    32.00000000
   60.85940000     8.40644000    28.90000000
   60.85840000     8.42328000    23.80000000
   60.85590000     8.48871000     4.40000000
   60.85530000     8.55242000     3.80000000
   60.85450000     8.56893000     7.60000000
   60.85400000     8.58549000    11.20000000
   60.85350000     8.60187000    13.60000000
   60.85280000     8.61826000    17.80000000
   60.85240000     8.63465000    19.30000000
   60.85210000     8.65115000    19.30000000
   60.85150000     8.66759000    20.40000000
   60.85100000     8.68403000    21.30000000
   60.85070000     8.70059000    19.90000000
   60.85050000     8.71709000    19.00000000
   60.85030000     8.73365000    17.70000000
   60.84990000     8.75015000    16.80000000
   60.84940000     8.76660000    16.00000000
   60.84900000     8.78304000    15.50000000
   60.84870000     8.79954000    14.90000000
   60.84870000     8.81633000    14.90000000
   60.84840000     8.83295000    16.20000000
   60.84810000     8.84962000    17.30000000
   60.84780000     8.86623000    17.70000000
   60.84720000     8.88279000    17.50000000
   60.84660000     8.89941000    21.00000000
   60.84600000     8.91597000    17.90000000
   60.84570000     8.93253000    16.90000000
   60.84540000     8.94914000    15.10000000
   60.84540000     8.96581000    14.30000000
   60.83180000     9.00277000     8.40000000
   60.81670000     9.00833000    10.40000000
   60.80160000     9.01383000    11.50000000
   60.78660000     9.01950000    13.10000000
   60.77170000     9.02512000    15.00000000
   60.75670000     9.03056000    16.20000000
   60.74170000     9.03589000    18.80000000
   60.72680000     9.04139000    19.70000000
   60.71180000     9.04677000    22.30000000
   60.69690000     9.05199000    24.10000000
   60.68200000     9.05726000    26.70000000
   60.66710000     9.06276000    29.30000000
   60.65240000     9.06837000    31.40000000
   60.63760000     9.07399000    33.90000000
   60.62300000     9.07966000    35.40000000
   60.60850000     9.08551000    35.50000000
   60.59380000     9.09129000    34.70000000
   60.57920000     9.09702000    31.90000000
   60.56450000     9.10287000    28.60000000
   60.54970000     9.10888000    24.30000000
   60.53460000     9.11478000    20.50000000
   60.51960000     9.12074000    15.70000000
   60.50460000     9.12665000    10.80000000
   60.48950000     9.13243000     6.10000000
   60.47440000     9.13833000     1.40000000
   60.45940000     9.14441000    -4.40000000
   60.44440000     9.15048000    -9.40000000
   60.42940000     9.15650000   -14.20000000
   60.41430000     9.16257000   -16.60000000
   60.39920000     9.16870000   -17.80000000
   60.38420000     9.17489000   -18.00000000
   60.36920000     9.18113000   -17.80000000
   60.35420000     9.18732000   -15.10000000
   60.33910000     9.19351000   -12.60000000
   60.32410000     9.19970000    -9.20000000
   60.30920000     9.20600000    -5.60000000
   60.29420000     9.21224000    -3.20000000
   60.27930000     9.21872000    -0.30000000
   60.26430000     9.22508000     1.80000000
   60.24930000     9.23127000     3.90000000
   60.23420000     9.23757000     5.20000000
   60.21910000     9.24393000     5.60000000
   60.20430000     9.25035000     5.60000000
   60.18930000     9.25648000     5.60000000
   60.17360000     9.26272000     5.60000000
   60.15810000     9.26908000     5.60000000
   60.14250000     9.27538000     5.60000000
   60.12710000     9.28163000     5.60000000
   60.11160000     9.28776000     5.60000000
   60.09600000     9.29389000     5.70000000
   60.08040000     9.30008000     5.10000000
   60.06490000     9.30632000     3.80000000
   60.04940000     9.31268000     3.00000000
   60.03400000     9.31899000     1.90000000
   60.01850000     9.32523000     0.90000000
   60.00300000     9.33148000     0.20000000
   59.98760000     9.33772000    -0.50000000
   59.97210000     9.34391000    -1.40000000
   59.95660000     9.35010000    -2.90000000
   59.94110000     9.35623000    -3.90000000
   59.92560000     9.36236000    -4.40000000
   59.91020000     9.36860000    -4.60000000
   59.89490000     9.37502000    -4.30000000
   59.87950000     9.38138000    -3.60000000
   59.86410000     9.38763000    -3.80000000
   59.84850000     9.39387000    -2.30000000
   59.83290000     9.39994000    -0.90000000
   59.81730000     9.40613000     0.80000000
   59.80080000     9.41318000     2.40000000
   59.78470000     9.41994000     3.70000000
   59.76850000     9.42647000     7.70000000
   59.75220000     9.43289000    12.00000000
   59.73610000     9.43942000    17.40000000
   59.71990000     9.44612000    21.30000000
   59.70380000     9.45300000    24.10000000
   59.68750000     9.45988000    26.90000000
   59.67140000     9.46664000    28.60000000
   59.65510000     9.47334000    28.40000000
   59.63890000     9.48016000    26.10000000
   59.62270000     9.48686000    22.80000000
   59.60640000     9.49357000    18.00000000
   59.59030000     9.50027000    14.50000000
   59.57410000     9.50680000    10.90000000
   59.52850000     9.52571000     3.50000000
   59.51170000     9.53161000    -0.90000000
   59.45830000     9.55075000     1.50000000
   59.44190000     9.55825000     3.10000000
   59.42550000     9.56599000     4.80000000
   59.40910000     9.57372000     5.50000000
   59.39260000     9.58123000     7.20000000
   59.37610000     9.58862000     8.20000000
   59.35950000     9.59595000    10.70000000
   59.34300000     9.60329000    12.30000000
   59.32640000     9.61056000    13.40000000
   59.30990000     9.61790000    14.70000000
   59.29330000     9.62517000    14.70000000
   59.27660000     9.63251000    15.10000000
   59.25990000     9.63973000    14.30000000
   59.24310000     9.64689000    14.40000000
   59.22640000     9.65417000    15.40000000
   59.20960000     9.66138000    16.40000000
   59.19290000     9.66866000    18.40000000
   59.17610000     9.67582000    21.10000000
   59.15980000     9.68344000    26.30000000
   59.14360000     9.69101000    32.10000000
   59.12740000     9.69851000    39.10000000
   59.11120000     9.70608000    45.80000000
   59.09430000     9.71330000    51.60000000
   59.07750000     9.72040000    54.80000000
   59.06040000     9.72745000    56.40000000
   59.04340000     9.73455000    55.80000000
   59.02640000     9.74171000    50.40000000
   59.00940000     9.74887000    39.60000000
   58.99240000     9.75598000    27.70000000
   58.97540000     9.76320000    19.50000000
   58.95850000     9.77042000    13.90000000
   58.94160000     9.77758000    11.40000000
   58.92460000     9.78480000     8.10000000
   58.90770000     9.79185000     5.50000000
   58.89070000     9.79895000     5.40000000
   58.87380000     9.80606000     5.20000000
   58.85680000     9.81316000     6.10000000
   58.83970000     9.82009000     7.70000000
   58.82260000     9.82691000     6.80000000
   58.80550000     9.83390000     6.50000000
   58.78850000     9.84089000     6.90000000
   58.77160000     9.84788000     6.00000000
   58.75460000     9.85493000     5.10000000
   58.73750000     9.86203000     3.40000000
   58.72050000     9.86908000     4.20000000
   58.70390000     9.87613000     8.00000000
   58.68770000     9.88283000    13.00000000
   58.67130000     9.88954000    19.80000000
   58.65500000     9.89630000    29.20000000
   58.63870000     9.90306000    39.80000000
   58.62240000     9.90971000    48.90000000
   58.60610000     9.91641000    58.60000000
   58.58970000     9.92305000    66.70000000
   58.57340000     9.92964000    71.00000000
   58.55710000     9.93640000    65.30000000
   58.54080000     9.94322000    53.40000000
   58.52460000     9.95010000    45.30000000
   58.50340000     9.96454000    40.80000000
   58.50230000     9.96574000    40.50000000
   58.50120000     9.96700000    40.70000000
   58.50000000     9.96820000    39.90000000
   58.50140000     9.96912000    39.80000000
   58.50290000     9.96992000    39.30000000
   58.50430000     9.97067000    38.50000000
   58.50580000     9.97141000    38.50000000
   58.50720000     9.97216000    38.50000000
   58.50850000     9.97284000    39.30000000
   58.50890000     9.97273000    39.90000000
   58.50940000     9.97061000    38.90000000
   58.51000000     9.96104000    42.40000000
   58.51020000     9.94603000    44.70000000
   58.51010000     9.93102000    47.90000000
   58.50990000     9.91612000    49.20000000
   58.50970000     9.90123000    49.10000000
   58.50940000     9.88644000    50.60000000
   58.50900000     9.87166000    52.70000000
   58.50880000     9.85694000    57.60000000
   58.50850000     9.84227000    62.50000000
   58.50820000     9.82766000    67.10000000
   58.50780000     9.81293000    69.90000000
   58.50740000     9.79821000    71.60000000
   58.50700000     9.78354000    69.10000000
   58.50660000     9.76882000    66.60000000
   58.50610000     9.75409000    62.80000000
   58.50580000     9.73948000    59.10000000
   58.50540000     9.72481000    55.50000000
   58.50510000     9.71020000    50.50000000
   58.50480000     9.69553000    47.10000000
   58.50610000     9.68041000    45.30000000
   58.50760000     9.66534000    43.60000000
   58.50890000     9.65033000    41.70000000
   58.51680000     9.58948000    50.10000000
   58.51970000     9.57395000    41.20000000
   58.52260000     9.55848000    24.20000000
   58.52540000     9.54301000    15.20000000
   58.52810000     9.52760000     8.80000000
   58.53080000     9.51219000     3.10000000
   58.53350000     9.49678000    -1.40000000
   58.53630000     9.48136000    -6.80000000
   58.53910000     9.46589000   -12.30000000
   58.56750000     9.35428000   -22.70000000
   58.57140000     9.33875000   -20.60000000
   58.57540000     9.32328000   -17.90000000
   58.57930000     9.30781000   -14.70000000
   58.58320000     9.29240000   -11.70000000
   58.58680000     9.27710000    -4.80000000
   58.59030000     9.26180000     1.10000000
   58.59390000     9.24651000     7.40000000
   58.59970000     9.20113000     7.20000000
   58.60090000     9.18612000     5.00000000
   58.60220000     9.17099000     3.40000000
   58.60360000     9.15586000     2.40000000
   58.60510000     9.14074000     2.60000000
   58.60660000     9.12561000     2.50000000
   58.60790000     9.11043000     4.70000000
   58.60940000     9.09525000     6.30000000
   58.61030000     9.08035000     9.20000000
   58.61080000     9.06528000    12.90000000
   58.61130000     9.05015000    17.50000000
   58.61190000     9.03503000    21.20000000
   58.61240000     9.01990000    26.70000000
   58.61270000     9.00489000    30.90000000
   58.61330000     8.98982000    37.50000000
   58.61430000     8.97470000    38.90000000
   58.61610000     8.94444000    44.20000000
   58.61680000     8.92937000    45.80000000
   58.61740000     8.91430000    46.60000000
   58.61810000     8.89924000    47.20000000
   58.61870000     8.88411000    49.00000000
   58.61920000     8.86899000    49.70000000
   58.61990000     8.85386000    50.70000000
   58.62060000     8.83873000    48.90000000
   58.62100000     8.82366000    46.30000000
   58.62120000     8.80859000    41.40000000
   58.62140000     8.79358000    41.30000000
   58.62160000     8.77851000    38.40000000
   58.62200000     8.76339000    41.90000000
   58.62250000     8.74832000    46.90000000
   58.62290000     8.73325000    55.40000000
   58.62320000     8.71830000    61.30000000
   58.62380000     8.70323000    65.70000000
   58.62420000     8.68822000    64.20000000
   58.62330000     8.67235000    66.60000000
   58.62260000     8.65613000    61.00000000
   58.62180000     8.63997000    56.00000000
   58.62090000     8.62382000    49.10000000
   58.62010000     8.60754000    43.90000000
   58.60690000     8.56297000    35.90000000
   58.60070000     8.54876000    33.20000000
   58.59460000     8.53449000    29.00000000
   58.58850000     8.52028000    28.90000000
   58.58240000     8.50602000    30.30000000
   58.57650000     8.49169000    33.20000000
   58.57040000     8.47737000    32.30000000
   58.56440000     8.46316000    29.00000000
   58.55810000     8.44889000    24.40000000
   58.55180000     8.43474000    20.70000000
   58.54560000     8.42053000    16.00000000
   58.56730000     8.36776000   -12.80000000
   58.56800000     8.35246000   -17.50000000
   58.56860000     8.33722000   -18.40000000
   58.56910000     8.32198000   -16.40000000
   58.56970000     8.30685000   -13.00000000
   58.57040000     8.29167000    -9.10000000
   58.57190000     8.26154000    -1.30000000
   58.57220000     8.24652000     2.00000000
   58.57270000     8.23157000     6.50000000
   58.57220000     8.21547000     7.10000000
   58.57180000     8.19925000    12.70000000
   58.57130000     8.18310000    13.40000000
   58.57060000     8.16688000    16.90000000
   58.57000000     8.15067000    17.70000000
   58.56950000     8.13445000    20.00000000
   58.56900000     8.11830000    21.70000000
   58.56840000     8.10214000    24.50000000
   58.56780000     8.08592000    25.30000000
   58.56720000     8.06971000    26.10000000
   58.56670000     8.05349000    23.20000000
   58.56610000     8.03728000    21.60000000
   58.56550000     8.02107000    20.00000000
   58.56490000     8.00491000    21.20000000
   58.56420000     7.98869000    26.80000000
   58.56340000     7.97253000    30.50000000
   58.56250000     7.95649000    36.60000000
   58.56150000     7.94039000    37.20000000
   58.56070000     7.92429000    37.60000000
   58.56000000     7.90814000    33.20000000
   58.55920000     7.89198000    29.80000000
   58.55830000     7.87588000    23.90000000
   58.55760000     7.85978000    20.10000000
   58.55680000     7.84368000    16.50000000
   58.55610000     7.82758000    15.70000000
   58.55660000     7.81039000    15.20000000
   58.55690000     7.79354000    15.30000000
   58.55710000     7.77676000    16.70000000
   58.55740000     7.75985000    17.70000000
   58.55780000     7.74301000    17.40000000
   58.55810000     7.72610000    15.40000000
   58.55850000     7.70926000    14.40000000
   58.55880000     7.69241000    15.40000000
   58.55920000     7.67557000    15.90000000
   58.55950000     7.65872000    21.10000000
   58.55980000     7.64182000    26.70000000
   58.56020000     7.62492000    33.60000000
   58.56040000     7.60796000    34.40000000
   58.56070000     7.59106000    29.70000000
   58.56100000     7.57421000    24.00000000
   58.55870000     7.50913000    18.20000000
   58.55480000     7.44633000    30.20000000
   58.55440000     7.43034000    32.90000000
   58.55400000     7.41442000    34.70000000
   58.55420000     7.40204000    36.80000000
   58.54840000     7.35466000    33.20000000
   58.54700000     7.33890000    29.50000000
   58.54550000     7.32309000    27.10000000
   58.54410000     7.30739000    24.10000000
   58.54250000     7.29163000    21.20000000
   58.54090000     7.27519000    21.00000000
   58.53920000     7.25817000    19.50000000
   58.53750000     7.24121000    18.80000000
   58.53580000     7.22425000    18.80000000
   58.53390000     7.20729000    18.70000000
   58.53200000     7.19039000    19.60000000
   58.53030000     7.17349000    19.70000000
   58.52860000     7.15653000    19.00000000
   58.52700000     7.13974000    16.50000000
   58.52530000     7.12324000    13.00000000
   58.52360000     7.10668000    10.10000000
   58.52190000     7.09012000     8.00000000
   58.52020000     7.07357000     5.20000000
   58.51850000     7.05706000     3.10000000
   58.51670000     7.04056000     1.90000000
   58.51490000     7.02412000     2.60000000
   58.51400000     7.00681000     1.50000000
   58.51300000     6.98974000     1.90000000
   58.51200000     6.97261000     0.30000000
   58.51120000     6.95548000    -0.90000000
   58.51030000     6.93829000    -2.70000000
   58.50940000     6.92110000    -2.40000000
   58.50830000     6.90397000    -0.70000000
   58.50730000     6.88678000    -1.50000000
   58.50620000     6.86965000     0.60000000
   58.50530000     6.85246000    -0.20000000
   58.50440000     6.83522000     0.70000000
   58.50340000     6.81802000     0.50000000
   58.50240000     6.80084000     1.70000000
   58.50140000     6.78365000     1.50000000
   58.50030000     6.76652000     1.60000000
   58.49930000     6.74938000     2.60000000
   58.49830000     6.73225000     3.50000000
   58.49720000     6.71507000     6.00000000
   58.49610000     6.69782000     8.00000000
   58.49520000     6.68063000    10.20000000
   58.49430000     6.66350000    12.50000000
   58.49340000     6.64637000    14.10000000
   58.49250000     6.62912000    15.90000000
   58.48940000     6.61256000    17.90000000
   58.48620000     6.59612000    19.70000000
   58.48310000     6.57973000    22.20000000
   58.48010000     6.56323000    25.50000000
   58.47700000     6.54679000    29.70000000
   58.47830000     6.49740000    32.30000000
   58.48030000     6.48095000    26.60000000
   58.48210000     6.46439000    19.30000000
   58.48410000     6.44784000    11.50000000
   58.48600000     6.43139000     1.70000000
   58.48780000     6.41495000    -5.00000000
   58.46220000     6.34826000   -18.60000000
   58.45700000     6.33221000   -21.00000000
   58.45140000     6.31566000   -20.80000000
   58.44600000     6.29910000   -21.30000000
   58.44070000     6.28254000   -23.10000000
   58.43530000     6.26598000   -22.30000000
   58.42990000     6.24948000   -21.80000000
   58.42440000     6.23298000   -19.90000000
   58.41890000     6.21659000   -18.50000000
   58.41350000     6.20021000   -17.10000000
   58.40820000     6.18376000   -16.80000000
   58.40290000     6.16732000   -15.50000000
   58.39760000     6.15087000   -14.70000000
   58.39220000     6.13443000   -13.90000000
   58.38690000     6.11798000   -12.60000000
   58.38140000     6.10154000    -9.80000000
   58.37600000     6.08510000    -8.80000000
   58.37070000     6.06865000    -7.20000000
   58.36430000     6.05250000    -6.40000000
   58.35800000     6.03634000    -5.90000000
   58.35180000     6.02018000    -6.10000000
   58.34550000     6.00402000    -6.40000000
   58.33930000     5.98781000    -7.50000000
   58.33290000     5.97171000    -7.00000000
   58.32650000     5.95561000    -6.60000000
   58.32010000     5.93945000    -5.20000000
   58.31400000     5.92318000    -2.70000000
   58.30770000     5.90697000    -4.00000000
   58.30130000     5.89075000    -2.80000000
   58.29490000     5.87448000    -3.90000000
   58.28860000     5.85820000    -3.00000000
   58.28230000     5.84199000    -1.70000000
   58.27590000     5.82578000    -0.80000000
   58.26950000     5.80956000     0.50000000
   58.26300000     5.79335000     2.30000000
   58.25650000     5.77713000     4.10000000
   58.25000000     5.76103000     6.00000000
   58.24350000     5.74493000     7.00000000
   58.23700000     5.72878000     8.70000000
   58.23050000     5.71273000    11.50000000
   58.22410000     5.69652000    14.30000000
   58.21770000     5.68030000    16.30000000
   58.21130000     5.66403000    17.00000000
   58.20480000     5.64782000    16.20000000
   58.19960000     5.63189000    16.10000000
   58.19440000     5.61625000    15.90000000
   58.18910000     5.60060000    15.50000000
   58.18400000     5.58508000    16.60000000
   58.17880000     5.56955000    15.90000000
   58.17350000     5.55391000    16.20000000
   58.16830000     5.53832000    15.30000000
   58.16310000     5.52268000    13.70000000
   58.15800000     5.50704000    10.00000000
   58.15280000     5.49151000     9.70000000
   58.14760000     5.47599000     9.10000000
   58.14250000     5.46046000     8.80000000
   58.13730000     5.44482000     9.10000000
   58.13220000     5.42918000     9.20000000
   58.12710000     5.41353000     6.90000000
   58.12210000     5.39789000     4.60000000
   58.11690000     5.38231000     3.90000000
   58.11180000     5.36678000     2.90000000
   58.10660000     5.35125000     2.90000000
   58.10160000     5.33567000     4.50000000
   58.09650000     5.32008000     6.30000000
   58.09150000     5.30456000     9.30000000
   58.08630000     5.28892000     6.40000000
   58.08110000     5.27327000     6.40000000
   58.07610000     5.25763000     3.70000000
   58.07140000     5.24199000    -0.50000000
   58.06680000     5.22623000    -3.40000000
   58.06190000     5.21059000    -7.00000000
   58.05680000     5.19501000    -7.10000000
   58.05180000     5.17942000    -7.00000000
   58.04680000     5.16378000    -6.50000000
   58.04180000     5.14814000    -3.30000000
   58.03670000     5.13256000     1.00000000
   58.03160000     5.11691000     4.10000000
   58.02640000     5.10139000     5.70000000
   58.02130000     5.08586000     8.40000000
   58.01630000     5.07027000     9.10000000
   58.01140000     5.05469000    12.10000000
   58.00660000     5.03951000    17.40000000
   57.93220000     4.99338000    18.20000000
   57.91640000     4.99167000    22.00000000
   57.90070000     4.99000000    25.40000000
   57.88510000     4.98828000    27.90000000
   57.86810000     4.98651000    27.30000000
   57.85090000     4.98531000    24.70000000
   57.83380000     4.98404000    22.30000000
   57.81680000     4.98267000    22.00000000
   57.79970000     4.98124000    22.50000000
   57.78270000     4.98003000    24.10000000
   57.76560000     4.97906000    25.50000000
   57.74850000     4.97820000    28.60000000
   57.73140000     4.97728000    33.10000000
   57.71440000     4.97648000    36.90000000
   57.69730000     4.97556000    39.40000000
   57.68030000     4.97442000    37.80000000
   57.66330000     4.97322000    32.50000000
   57.64630000     4.97184000    24.10000000
   57.62930000     4.97081000    14.10000000
   57.61230000     4.97041000     6.40000000
   57.59540000     4.96978000     0.30000000
   57.57860000     4.96892000    -3.90000000
   57.56180000     4.96772000    -6.10000000
   57.54510000     4.96646000    -5.90000000
   57.52840000     4.96519000    -4.20000000
   57.51230000     4.96445000    -2.00000000
   57.49630000     4.96382000     1.00000000
   57.48040000     4.96290000     4.80000000
   57.46440000     4.96204000     7.70000000
   57.44850000     4.96136000    10.20000000
   57.43260000     4.96067000    12.10000000
   57.41660000     4.95998000    13.80000000
   57.40020000     4.95878000    14.10000000
   57.38350000     4.95786000    12.40000000
   57.36680000     4.95683000     9.30000000
   57.35010000     4.95568000     7.30000000
   57.33350000     4.95465000     6.40000000
   57.31690000     4.95362000     6.30000000
   57.30030000     4.95253000     4.60000000
   57.28370000     4.95138000     2.40000000
   57.26710000     4.95018000     0.10000000
   57.25040000     4.94921000    -0.60000000
   57.23380000     4.94829000     0.00000000
   57.21720000     4.94732000     1.90000000
   57.20050000     4.94657000     5.10000000
   57.18380000     4.94583000     7.90000000
   57.16720000     4.94485000    10.40000000
   57.15050000     4.94388000    10.00000000
   57.13390000     4.94285000     7.40000000
   57.11720000     4.94193000     3.00000000
   57.10050000     4.94119000    -0.70000000
   57.08380000     4.94027000    -3.10000000
   57.06720000     4.93918000    -4.40000000
   57.05070000     4.93850000    -5.30000000
   57.03420000     4.93855000    -5.90000000
   57.01790000     4.93850000    -5.90000000
   57.00170000     4.93832000    -5.40000000
   56.98500000     4.93815000    -6.00000000
   56.96860000     4.93998000    -4.60000000
   56.95240000     4.94359000    -2.60000000
   56.93620000     4.94738000    -0.40000000
   56.92010000     4.95116000     0.60000000
   56.90400000     4.95494000     1.20000000
   56.88790000     4.95872000    -0.30000000
   56.87180000     4.96244000    -3.40000000
   56.85560000     4.96617000    -9.10000000
   56.83940000     4.96995000   -15.90000000
   56.82330000     4.97373000   -21.50000000
   56.80710000     4.97751000   -25.10000000
   56.79100000     4.98135000   -24.60000000
   56.77490000     4.98519000   -22.30000000
   56.75970000     4.98404000   -20.60000000
   56.75840000     4.98347000   -20.50000000
   56.75730000     4.98296000   -20.00000000
   56.75610000     4.98238000   -20.50000000
   56.75500000     4.98181000   -20.70000000
   56.75370000     4.98124000   -20.60000000
   56.75260000     4.98067000   -19.70000000
   56.75190000     4.98009000   -19.90000000
   56.75110000     4.97958000   -20.00000000
   56.75030000     4.97900000   -19.60000000
   56.74950000     4.97843000   -20.10000000
   56.74860000     4.97786000   -19.60000000
   56.67110000     4.97980000   -10.90000000
   56.65460000     4.98078000    -9.50000000
   56.63810000     4.98181000    -7.30000000
   56.62180000     4.98273000    -5.40000000
   56.60540000     4.98364000    -4.00000000
   56.58820000     4.98456000    -4.40000000
   56.57130000     4.98542000    -3.30000000
   56.55440000     4.98616000    -3.20000000
   56.53750000     4.98685000    -3.40000000
   56.52060000     4.98760000    -5.10000000
   56.50370000     4.98840000    -7.00000000
   56.48680000     4.98926000    -8.80000000
   56.47000000     4.99000000   -10.40000000
   56.45310000     4.99058000   -11.90000000
   56.43620000     4.99121000   -13.90000000
   56.41920000     4.99201000   -15.40000000
   56.40230000     4.99281000   -15.70000000
   56.38540000     4.99367000   -16.40000000
   56.36850000     4.99447000   -16.50000000
   56.35160000     4.99510000   -16.30000000
   56.33470000     4.99579000   -15.70000000
   56.31790000     4.99654000   -15.20000000
   56.30100000     4.99734000   -15.10000000
   56.28410000     4.99814000   -15.80000000
   56.26720000     4.99894000   -17.10000000
   56.25020000     4.99957000   -18.00000000
   56.23330000     5.00026000   -18.90000000
   56.21610000     5.00215000   -18.60000000
   56.19900000     5.00456000   -19.00000000
   56.18180000     5.00685000   -18.20000000
   56.16460000     5.00811000   -17.80000000
   56.14740000     5.00931000   -16.90000000
   56.13020000     5.01040000   -15.70000000
   56.11300000     5.01149000   -15.20000000
   56.09580000     5.01212000   -14.20000000
   56.07860000     5.01212000   -13.60000000
   56.06140000     5.01189000   -12.60000000
   56.04420000     5.01166000   -12.20000000
   56.02710000     5.01149000   -11.10000000
   56.00990000     5.01109000   -11.00000000
   55.99270000     5.01075000   -10.70000000
   55.97550000     5.01057000   -10.40000000
   55.95830000     5.01040000   -10.50000000
   55.94110000     5.01023000   -10.70000000
   55.92380000     5.01000000   -10.30000000
   55.90660000     5.00943000    -9.60000000
   55.88950000     5.00874000    -8.90000000
   55.87230000     5.00799000    -9.00000000
   55.85510000     5.00725000    -8.20000000
   55.83790000     5.00645000    -7.50000000
   55.82090000     5.00570000    -7.40000000
   55.80370000     5.00496000    -7.50000000
   55.78630000     5.00415000    -7.20000000
   55.76920000     5.00318000    -6.80000000
   55.75200000     5.00227000    -6.90000000
   55.73490000     5.00158000    -6.50000000
   55.71770000     5.00072000    -6.00000000
   55.70060000     4.99992000    -5.20000000
   55.68340000     4.99911000    -4.30000000
   55.66630000     4.99825000    -3.40000000
   55.64920000     4.99745000    -2.90000000
   55.63210000     4.99665000    -2.90000000
   55.61490000     4.99579000    -3.50000000
   55.59770000     4.99499000    -3.00000000
   55.58060000     4.99424000    -2.40000000
   55.56340000     4.99350000    -2.40000000
   55.54630000     4.99275000    -2.30000000
   55.52920000     4.99201000    -1.40000000
   55.50340000     4.99121000    -3.30000000
   55.39800000     4.97889000    -2.50000000
   55.38030000     4.97751000    -3.60000000
   55.36270000     4.97614000    -4.60000000
   55.34520000     4.97476000    -5.20000000
   55.32800000     4.97322000    -6.90000000
   55.31080000     4.97167000    -8.80000000
   55.29350000     4.97018000   -10.00000000
   55.27610000     4.96863000   -11.10000000
   55.25890000     4.96720000   -11.10000000
   55.24160000     4.96571000   -10.80000000
   55.22440000     4.96422000   -11.00000000
   55.20720000     4.96268000   -10.70000000
   55.19000000     4.96118000   -10.30000000
   55.17280000     4.95981000   -10.80000000
   55.15550000     4.95843000   -10.70000000
   55.13840000     4.95706000   -10.30000000
   55.12120000     4.95563000   -10.20000000
   55.10390000     4.95420000   -10.00000000
   55.08670000     4.95282000    -9.30000000
   55.06950000     4.95133000    -8.60000000
   55.05240000     4.94984000    -7.90000000
   55.03530000     4.94858000    -7.90000000
   55.01810000     4.94738000    -7.60000000
   55.00110000     4.94611000    -7.70000000
   54.98400000     4.94480000    -6.80000000
   54.96600000     4.94520000    -6.60000000
   54.94820000     4.94566000    -6.10000000
   54.93040000     4.94611000    -5.30000000
   54.91270000     4.94651000    -5.10000000
   54.89490000     4.94686000    -4.50000000
   54.87700000     4.94720000    -3.40000000
   54.85920000     4.94766000    -2.10000000
   54.84130000     4.94806000    -0.90000000
   54.82350000     4.94852000     0.90000000
   54.80560000     4.94898000     2.80000000
   54.78780000     4.94938000     3.80000000
   54.77000000     4.94978000     4.80000000
   54.75210000     4.95018000     5.40000000
   54.73430000     4.95059000     5.50000000
   54.71640000     4.95104000     5.90000000
   54.69870000     4.95150000     6.00000000
   54.68190000     4.95185000     6.00000000
   54.66530000     4.95202000     6.10000000
   54.64870000     4.95213000     5.80000000
   54.63220000     4.95230000     4.90000000
   54.61560000     4.95253000     2.80000000
   54.59910000     4.95270000     0.60000000
   54.58250000     4.95282000    -2.50000000
   54.56590000     4.95305000    -7.00000000
   54.54920000     4.95328000   -11.60000000
   54.53230000     4.95351000   -15.30000000
   54.51540000     4.95362000   -16.30000000
   54.49860000     4.95368000   -16.10000000
   54.48190000     4.95379000   -14.60000000
   54.46530000     4.95396000   -14.40000000
   54.44870000     4.95402000   -13.50000000
   54.43210000     4.95420000   -12.90000000
   54.41560000     4.95437000   -12.40000000
   54.39900000     4.95442000   -12.10000000
   54.38230000     4.95442000   -11.60000000
   54.36580000     4.95437000   -10.90000000
   54.34920000     4.95431000    -9.10000000
   54.33260000     4.95414000    -6.90000000
   54.31600000     4.95408000    -4.50000000
   54.29940000     4.95408000    -3.20000000
   54.28280000     4.95408000    -4.70000000
   54.26630000     4.95402000    -5.60000000
   54.20040000     4.95224000   -14.70000000
   54.18550000     4.95162000   -14.20000000
   54.17060000     4.95098000   -14.20000000
   54.15570000     4.95059000   -13.10000000
   54.14110000     4.95035000   -10.30000000
   54.09220000     4.95007000    -6.50000000
   54.07560000     4.94984000    -3.50000000
   54.05790000     4.94961000    -1.00000000
   54.04070000     4.94932000     1.30000000
   54.02350000     4.94927000     2.60000000
   54.00640000     4.94921000     3.00000000
   53.98930000     4.94886000     1.50000000
   53.97210000     4.94864000    -0.40000000
   53.95480000     4.94864000    -2.70000000
   53.93750000     4.94892000    -5.80000000
   53.92020000     4.94898000    -9.40000000
   53.90300000     4.94886000   -13.70000000
   53.88580000     4.94875000   -15.60000000
   53.86850000     4.94869000   -16.20000000
   53.85120000     4.94864000   -16.10000000
   53.83390000     4.94875000   -15.40000000
   53.81670000     4.94915000   -13.90000000
   53.79940000     4.94932000   -12.40000000
   53.78220000     4.94932000   -10.30000000
   53.76500000     4.94944000    -6.20000000
   53.74770000     4.94967000    -0.60000000
   53.73040000     4.95030000     6.70000000
   53.71320000     4.95121000    15.90000000
   53.69590000     4.95196000    27.40000000
   53.67870000     4.95224000    39.50000000
   53.66140000     4.95224000    52.20000000
   53.64420000     4.95242000    64.40000000
   53.62700000     4.95253000    75.00000000
   53.60980000     4.95230000    83.10000000
   53.59260000     4.95253000    89.60000000
   53.57540000     4.95299000    93.90000000
   53.55840000     4.95448000    95.30000000
   53.54180000     4.95568000    94.70000000
   53.52520000     4.95706000    91.30000000
   53.50860000     4.95843000    86.80000000
   53.49200000     4.95986000    82.00000000
   53.47530000     4.96147000    75.50000000
   53.45860000     4.96302000    68.00000000
   53.44200000     4.96451000    59.20000000
   53.42540000     4.96594000    48.10000000
   53.40880000     4.96743000    36.00000000
   53.39220000     4.96886000    22.20000000
   53.37560000     4.97029000     7.30000000
   53.35900000     4.97167000    -7.50000000
   53.34240000     4.97287000   -19.30000000
   53.32590000     4.97390000   -29.60000000
   53.30930000     4.97482000   -38.20000000
   53.29270000     4.97597000   -45.00000000
   53.27620000     4.97711000   -50.50000000
   53.25960000     4.97814000   -56.00000000
   53.24310000     4.97912000   -60.00000000
   53.22660000     4.98015000   -62.60000000
   53.21000000     4.98112000   -63.80000000
   53.19360000     4.98170000   -63.70000000
   53.17710000     4.98250000   -64.10000000
   53.16050000     4.98347000   -63.90000000
   53.14380000     4.98473000   -63.30000000
   53.12610000     4.98697000   -62.20000000
   53.10860000     4.98909000   -60.90000000
   53.09110000     4.99126000   -60.40000000
   53.07360000     4.99344000   -59.50000000
   53.05610000     4.99550000   -57.50000000
   53.03870000     4.99740000   -56.30000000
   53.02120000     4.99940000   -54.10000000
   53.00380000     5.00158000   -51.80000000
   52.86630000     5.00902000   -36.80000000
   52.84890000     5.00885000   -35.40000000
   52.83160000     5.00868000   -33.70000000
   52.81420000     5.00851000   -33.20000000
   52.79680000     5.00851000   -32.80000000
   52.77950000     5.00851000   -32.50000000
   52.76220000     5.00845000   -32.90000000
   52.74490000     5.00834000   -32.80000000
   52.72760000     5.00822000   -33.40000000
   52.71120000     5.00794000   -33.60000000
   52.69490000     5.00765000   -34.50000000
   52.67860000     5.00736000   -34.90000000
   52.66240000     5.00708000   -35.10000000
   52.64610000     5.00679000   -33.60000000
   52.62990000     5.00650000   -33.00000000
   52.61370000     5.00628000   -32.80000000
   52.59750000     5.00610000   -32.70000000
   52.58120000     5.00593000   -32.60000000
   52.56510000     5.00570000   -31.90000000
   52.54890000     5.00530000   -32.10000000
   52.53250000     5.00502000   -32.80000000
   52.51620000     5.00479000   -31.90000000
   52.50000000     5.00461000   -31.80000000
   52.48380000     5.00444000   -31.10000000
   52.46760000     5.00415000   -31.70000000
   52.45130000     5.00404000   -31.30000000
   52.43500000     5.00387000   -30.90000000
   52.41870000     5.00387000   -31.30000000
   52.40250000     5.00387000   -30.80000000
   52.38630000     5.00375000   -31.20000000
   52.37010000     5.00358000   -31.90000000
   52.35380000     5.00341000   -32.00000000
   52.33760000     5.00312000   -32.00000000
   52.32190000     5.00141000   -32.50000000
   52.30650000     4.99957000   -32.90000000
   52.29090000     4.99774000   -33.30000000
   52.27540000     4.99596000   -33.90000000
   52.25990000     4.99413000   -33.70000000
   52.24440000     4.99218000   -33.50000000
   52.22890000     4.99035000   -32.40000000
   52.21340000     4.98857000   -32.50000000
   52.19790000     4.98674000   -31.60000000
   52.18240000     4.98502000   -31.20000000
   52.16680000     4.98336000   -31.40000000
   52.15120000     4.98164000   -31.90000000
   52.13570000     4.97980000   -32.50000000
   52.12020000     4.97809000   -32.30000000
   52.10460000     4.97648000   -31.90000000
   52.08910000     4.97471000   -32.90000000
   52.07360000     4.97293000   -34.70000000
   52.05810000     4.97121000   -35.70000000
   52.04260000     4.96943000   -34.30000000
   52.02720000     4.96766000   -33.40000000
   52.01170000     4.96611000   -31.80000000
   52.00080000     4.96268000   -31.20000000
   51.98980000     4.95889000   -35.10000000
   51.97880000     4.95511000   -37.80000000
   51.96780000     4.95133000   -38.10000000
   51.95680000     4.94749000   -38.80000000
   51.94580000     4.94365000   -39.00000000
   51.93480000     4.93981000   -40.30000000
   51.92370000     4.93643000   -40.70000000
   51.91260000     4.93374000   -41.10000000
   51.90140000     4.93122000   -41.10000000
   51.89010000     4.92875000   -41.20000000
   51.87900000     4.92641000   -40.70000000
   51.86780000     4.92406000   -39.60000000
   51.85670000     4.92159000   -38.60000000
   51.84550000     4.91913000   -38.60000000
   51.80490000     4.88836000   -39.60000000
   51.79420000     4.88773000   -39.20000000
   51.78360000     4.88682000   -39.50000000
   51.77300000     4.88595000   -40.50000000
   51.76250000     4.88538000   -40.60000000
   51.75210000     4.88447000   -41.30000000
   51.74170000     4.88383000   -42.20000000
   51.73130000     4.88315000   -42.50000000
   51.72090000     4.88206000   -42.80000000
   51.71050000     4.88114000   -44.10000000
   51.70010000     4.88028000   -44.30000000
   51.68970000     4.87919000   -44.60000000
   51.67920000     4.87793000   -44.40000000
   51.66870000     4.87673000   -44.70000000
   51.65830000     4.87524000   -44.50000000
   51.64770000     4.87364000   -44.70000000
   51.63710000     4.87197000   -44.20000000
   51.62660000     4.87043000   -43.30000000
   51.61600000     4.86894000   -43.20000000
   51.60540000     4.86739000   -42.00000000
   51.59480000     4.86590000   -42.00000000
   51.58420000     4.86447000   -41.50000000
   51.57360000     4.86298000   -40.70000000
   51.56300000     4.86155000   -40.30000000
   51.55260000     4.86109000   -39.50000000
   51.54230000     4.86223000   -40.90000000
   51.53200000     4.86401000   -40.40000000
   51.52170000     4.86578000   -40.50000000
   51.51150000     4.86756000   -41.90000000
   51.50130000     4.86951000   -41.90000000
   51.49110000     4.87163000   -42.30000000
   51.48130000     4.87329000   -43.00000000
   51.44730000     4.87862000   -44.40000000
   51.43520000     4.88051000   -44.70000000
   51.42300000     4.88206000   -44.80000000
   51.41090000     4.88349000   -45.50000000
   51.39890000     4.88515000   -46.20000000
   51.38690000     4.88693000   -46.00000000
   51.37570000     4.88951000   -47.00000000
   51.36420000     4.89209000   -47.80000000
   51.35280000     4.89524000   -48.00000000
   51.34150000     4.89890000   -49.60000000
   51.33000000     4.90200000   -49.40000000
   51.31840000     4.90469000   -49.60000000
   51.30680000     4.90773000   -49.60000000
   51.29520000     4.91059000   -49.50000000
   51.28350000     4.91340000   -49.50000000
   51.27180000     4.91626000   -49.20000000
   51.26020000     4.91913000   -49.30000000
   51.24870000     4.92211000   -49.30000000
   51.23700000     4.92503000   -49.00000000
   51.22540000     4.92790000   -48.00000000
   51.21380000     4.93076000   -46.90000000
   51.20220000     4.93363000   -46.60000000
   51.19060000     4.93655000   -45.60000000
   51.17900000     4.93947000   -45.10000000
   51.16740000     4.94233000   -44.90000000
   51.15570000     4.94525000   -44.20000000
   51.14410000     4.94806000   -44.00000000
   51.13250000     4.95059000   -42.70000000
   51.12090000     4.95333000   -41.80000000
   51.10950000     4.95666000   -41.70000000
   51.09810000     4.96010000   -39.80000000
   51.08670000     4.96325000   -39.20000000
   51.07530000     4.96588000   -37.70000000
   51.06370000     4.96869000   -36.00000000
   51.05210000     4.97190000   -35.90000000
   51.04050000     4.97522000   -35.20000000
   51.02880000     4.97843000   -34.80000000
   51.01720000     4.98170000   -33.90000000
