  114.07790000   -55.76790000     6.90000000
  114.07940000   -55.73840000     8.40000000
  114.08080000   -55.70900000     9.10000000
  114.08230000   -55.67910000    10.80000000
  114.08370000   -55.64920000    12.40000000
  114.08520000   -55.61930000    13.90000000
  114.08670000   -55.58950000    16.40000000
  114.08810000   -55.55960000    17.10000000
  114.08960000   -55.52970000    15.90000000
  114.12030000   -55.40990000    11.90000000
  114.11880000   -55.37870000    12.30000000
  114.11640000   -55.34770000    12.10000000
  114.11390000   -55.31670000    11.90000000
  114.11140000   -55.28560000    13.70000000
  114.10890000   -55.25460000    14.40000000
  114.10640000   -55.22360000    15.30000000
  114.10390000   -55.19260000    15.20000000
  114.10140000   -55.16150000    13.20000000
  114.09890000   -55.13050000    10.30000000
  114.09640000   -55.09880000     8.40000000
  114.09390000   -55.06700000     8.30000000
  114.11450000   -55.05640000     6.40000000
  114.11610000   -55.02790000     7.90000000
  114.11760000   -54.99940000     9.40000000
  114.11920000   -54.97090000     9.10000000
  114.12070000   -54.94240000     7.90000000
  114.12280000   -54.91370000     9.70000000
  114.12570000   -54.88460000    10.30000000
  114.12860000   -54.85550000     9.10000000
  114.13140000   -54.82640000     6.10000000
  114.13430000   -54.79730000     4.00000000
  114.13720000   -54.76820000     7.40000000
  114.14010000   -54.73910000     9.90000000
  114.14290000   -54.70990000     9.60000000
  114.14580000   -54.68080000    10.20000000
  114.14870000   -54.65170000     9.90000000
  114.15150000   -54.62260000     8.80000000
  114.15440000   -54.59350000     5.80000000
  114.15720000   -54.56440000     3.60000000
  114.16010000   -54.53530000     3.10000000
  114.16230000   -54.50670000     1.30000000
  114.16340000   -54.47890000    -1.90000000
  114.16450000   -54.45120000    -3.30000000
  114.16560000   -54.42340000    -3.50000000
  114.16670000   -54.39560000    -2.10000000
  114.16780000   -54.36780000     3.00000000
  114.16890000   -54.34000000     8.30000000
  114.17000000   -54.31280000     6.90000000
  114.17140000   -54.28530000     6.80000000
  114.17270000   -54.25770000     6.40000000
  114.17410000   -54.23010000     6.00000000
  114.17550000   -54.20250000     6.60000000
  114.17680000   -54.17490000     8.00000000
  114.17820000   -54.14740000     9.40000000
  114.17950000   -54.11980000    11.80000000
  114.18090000   -54.09220000    14.20000000
  114.18230000   -54.06460000    13.80000000
  114.18360000   -54.03700000    13.40000000
  114.18500000   -54.00950000    12.90000000
  114.18630000   -53.98260000    12.60000000
  114.18760000   -53.95580000    11.20000000
  114.18890000   -53.92890000     9.80000000
  114.19020000   -53.90210000    11.20000000
  114.19160000   -53.87530000    13.40000000
  114.19290000   -53.84840000    11.30000000
  114.19420000   -53.82160000     9.90000000
  114.19550000   -53.79470000    10.40000000
  114.19680000   -53.76790000    10.90000000
  114.19790000   -53.74070000    10.10000000
  114.19880000   -53.71330000     7.90000000
  114.19970000   -53.68590000     7.50000000
  114.20130000   -53.65880000     8.80000000
  114.20400000   -53.63030000     8.40000000
  114.20680000   -53.60180000     7.30000000
  114.20960000   -53.57330000     7.00000000
  114.21230000   -53.54480000     7.70000000
  114.21510000   -53.51640000     8.30000000
  114.21780000   -53.48790000     8.00000000
  114.25820000   -53.44680000     1.50000000
  114.26570000   -53.42820000     2.30000000
  114.27310000   -53.40850000     2.00000000
  114.28050000   -53.38880000    -1.80000000
  114.28800000   -53.36910000    -1.90000000
  114.29540000   -53.34940000    -2.00000000
  114.30280000   -53.32970000    -1.30000000
  114.31030000   -53.31150000     1.30000000
  114.31770000   -53.29320000     2.00000000
  114.32260000   -53.28090000     4.00000000
  114.33050000   -53.25310000     3.60000000
  114.33640000   -53.23220000     0.90000000
  114.34240000   -53.21140000     0.90000000
  114.34770000   -53.19140000     0.90000000
  114.35190000   -53.17140000    -0.20000000
  114.35530000   -53.15090000    -1.00000000
  114.35750000   -53.12870000    -1.80000000
  114.35890000   -53.11400000     1.30000000
  114.35800000   -53.08420000    -0.20000000
  114.35700000   -53.06290000     1.80000000
  114.35590000   -53.04150000     1.80000000
  114.35490000   -53.02020000     4.70000000
  114.35380000   -52.99880000     4.70000000
  114.35280000   -52.97750000     6.60000000
  114.34110000   -52.92990000     4.80000000
  114.33240000   -52.90460000     7.00000000
  114.32380000   -52.87940000     7.30000000
  114.31520000   -52.85420000     7.70000000
  114.30650000   -52.82890000     3.50000000
  114.29790000   -52.80370000     6.60000000
  114.28930000   -52.77850000     7.90000000
  114.28060000   -52.75320000    11.90000000
  114.26770000   -52.72620000    12.20000000
  114.25330000   -52.69850000    11.90000000
  114.24220000   -52.67750000     6.70000000
  114.23110000   -52.65650000     4.80000000
  114.21990000   -52.63550000     1.10000000
  114.20880000   -52.61450000     0.30000000
  114.19770000   -52.59340000     3.80000000
  114.18510000   -52.57260000     3.00000000
  114.17050000   -52.55190000     3.00000000
  114.15580000   -52.53130000     0.30000000
  114.14120000   -52.51060000     0.20000000
  114.13150000   -52.34370000    17.80000000
  114.13470000   -52.31990000    18.90000000
  114.13800000   -52.29620000    19.10000000
  114.14120000   -52.27240000    23.10000000
  114.14450000   -52.24870000    23.30000000
  114.14780000   -52.22490000    22.60000000
  114.15100000   -52.20120000    18.30000000
  114.15430000   -52.17750000    15.90000000
  114.15750000   -52.15370000    16.90000000
  114.16080000   -52.12890000    18.30000000
  114.16400000   -52.10400000    17.60000000
  114.16720000   -52.07920000    18.90000000
  114.17040000   -52.05440000    19.30000000
  114.17360000   -52.02950000    17.80000000
  114.17690000   -52.00470000    17.10000000
  114.18010000   -51.97980000    18.40000000
  114.18330000   -51.95440000    17.00000000
  114.18650000   -51.92910000    18.30000000
  114.18970000   -51.90370000    18.80000000
  114.19290000   -51.87830000    19.10000000
  114.19610000   -51.85290000    20.40000000
  114.19930000   -51.82730000    22.80000000
  114.20260000   -51.80160000    21.30000000
  114.20580000   -51.77600000    18.90000000
  114.20910000   -51.75030000    23.00000000
  114.21230000   -51.72470000    26.30000000
  114.21550000   -51.69910000    28.40000000
  114.21880000   -51.67340000    28.00000000
  114.22200000   -51.64780000    28.40000000
  114.22520000   -51.62220000    27.90000000
  114.22850000   -51.59650000    25.50000000
  114.23170000   -51.57090000    23.30000000
  114.23580000   -51.54600000    24.00000000
  114.24120000   -51.52300000    24.10000000
  114.24650000   -51.50450000    23.00000000
  114.25190000   -51.49370000    23.10000000
  114.34320000   -51.47130000    28.50000000
  114.34570000   -51.44340000    29.10000000
  114.34820000   -51.41550000    28.80000000
  114.35070000   -51.38760000    26.80000000
  114.35310000   -51.35970000    24.50000000
  114.35560000   -51.33180000    21.50000000
  114.35810000   -51.30390000    22.10000000
  114.36060000   -51.27600000    23.80000000
  114.36310000   -51.24900000    26.10000000
  114.36570000   -51.22190000    26.80000000
  114.36600000   -51.19580000    21.50000000
  114.36570000   -51.16980000    17.30000000
  114.36550000   -51.14390000    14.20000000
  114.36530000   -51.11800000    13.80000000
  114.36480000   -51.06610000    20.80000000
  114.36450000   -51.04020000    23.10000000
  114.36550000   -51.01550000    24.10000000
  114.36670000   -50.99110000    23.50000000
  114.36800000   -50.96670000    23.80000000
  114.36920000   -50.94180000    23.30000000
  114.37060000   -50.91550000    30.50000000
  114.37210000   -50.88930000    30.00000000
  114.37360000   -50.86300000    30.50000000
  114.37500000   -50.83670000    30.10000000
  114.37650000   -50.81040000    30.60000000
  114.37790000   -50.78410000    31.90000000
  114.37940000   -50.75790000    31.40000000
  114.38090000   -50.73160000    30.10000000
  114.38240000   -50.70670000    26.80000000
  114.38390000   -50.68230000    24.40000000
  114.38530000   -50.65780000    24.80000000
  114.38680000   -50.63330000    19.60000000
  114.38830000   -50.60890000    19.00000000
  114.38980000   -50.58440000    22.10000000
  114.39130000   -50.55990000    23.30000000
  114.39320000   -50.54050000    26.00000000
  114.45460000   -50.53970000    22.30000000
  114.45340000   -50.51420000    25.40000000
  114.45220000   -50.48870000    31.30000000
  114.45100000   -50.46320000    29.90000000
  114.44980000   -50.43770000    26.60000000
  114.44860000   -50.41220000    22.50000000
  114.44740000   -50.38670000    19.30000000
  114.44630000   -50.36190000    21.50000000
  114.44520000   -50.33710000    16.40000000
  114.44410000   -50.31240000    14.90000000
  114.44300000   -50.28760000    13.40000000
  114.44190000   -50.26280000    13.90000000
  114.44080000   -50.23810000    16.00000000
  114.43970000   -50.21330000    21.00000000
  114.43790000   -50.18920000    22.00000000
  114.43390000   -50.17150000    21.80000000
  114.56630000   -50.21510000    22.80000000
  114.56210000   -50.18910000    24.30000000
  114.55790000   -50.16320000    25.60000000
  114.55360000   -50.13720000    27.00000000
  114.54940000   -50.11120000    26.60000000
  114.54520000   -50.08520000    28.00000000
  114.54160000   -50.05940000    28.40000000
  114.53910000   -50.03360000    26.10000000
  114.53660000   -50.00780000    22.90000000
  114.53400000   -49.98210000    17.90000000
  114.53150000   -49.95630000    11.90000000
  114.52660000   -49.90430000   -15.30000000
  114.52420000   -49.87820000   -19.30000000
  114.52170000   -49.85220000   -18.90000000
  114.74620000   -50.00540000    19.50000000
  114.73330000   -49.98480000     8.80000000
  114.71840000   -49.96050000    -2.00000000
  114.70360000   -49.93630000   -13.70000000
  114.68870000   -49.91200000   -21.60000000
  114.68130000   -49.89990000   -22.30000000
  114.67390000   -49.88780000   -18.50000000
  114.65900000   -49.86350000    -6.30000000
  114.64420000   -49.83930000     6.10000000
  114.62930000   -49.81500000    13.80000000
  114.61450000   -49.79080000    20.40000000
  114.59960000   -49.76650000    19.80000000
  114.58680000   -49.74260000    19.10000000
  114.57440000   -49.71880000    14.90000000
  114.56190000   -49.69500000     6.80000000
  114.54940000   -49.67110000     1.50000000
  114.53700000   -49.64720000    -3.80000000
  114.52450000   -49.62330000    -9.90000000
  114.51200000   -49.59940000    -9.70000000
  114.49960000   -49.57550000    -1.90000000
  114.48690000   -49.55130000     3.80000000
  114.47350000   -49.52620000    11.40000000
  114.46010000   -49.50100000     8.30000000
  114.44310000   -49.55500000    -0.80000000
  114.41790000   -49.57370000     6.00000000
  114.39280000   -49.59240000    10.80000000
  114.36760000   -49.61110000    21.90000000
  114.31730000   -49.64850000    22.30000000
  114.26700000   -49.68590000    22.60000000
  114.24180000   -49.70460000    23.80000000
  114.21670000   -49.72320000    23.90000000
  114.19150000   -49.74190000    22.30000000
  114.16780000   -49.76090000    21.80000000
  114.14440000   -49.78000000    18.30000000
  114.11920000   -49.79720000     9.10000000
  114.08970000   -49.80960000     8.90000000
  114.06030000   -49.82210000     5.10000000
  114.03080000   -49.83460000    -2.60000000
  114.00140000   -49.84700000    -9.30000000
  113.97190000   -49.85950000   -12.20000000
  113.94240000   -49.87200000   -10.60000000
  114.00450000   -49.88870000     6.00000000
  114.05570000   -49.88940000    16.00000000
  114.10700000   -49.89000000    26.00000000
  114.15820000   -49.89060000    38.00000000
  114.20950000   -49.89120000    42.50000000
  114.26070000   -49.89170000    26.80000000
  114.31200000   -49.89190000     9.40000000
  114.36320000   -49.89220000   -10.10000000
  114.41440000   -49.89250000   -11.90000000
  114.46630000   -49.89270000   -13.10000000
  114.51820000   -49.89300000   -14.10000000
  114.56850000   -49.89080000   -16.40000000
  114.59770000   -49.85030000    -5.60000000
  114.60040000   -49.82410000     8.80000000
  114.60320000   -49.79790000    15.70000000
  114.60590000   -49.77170000    22.60000000
  114.60870000   -49.74550000    23.10000000
  114.61140000   -49.71930000    22.80000000
  114.61410000   -49.69310000    21.30000000
  114.61690000   -49.66690000    17.30000000
  114.61990000   -49.64110000    10.40000000
  114.62340000   -49.61600000     7.10000000
  114.62680000   -49.59080000     3.80000000
  114.63030000   -49.56580000    -1.30000000
  114.63380000   -49.54090000    -6.60000000
  114.63720000   -49.51590000   -10.80000000
  114.63900000   -49.50340000   -12.40000000
  114.64070000   -49.49100000    -9.40000000
  114.64400000   -49.46580000    -5.30000000
  114.64680000   -49.43950000    -0.20000000
  114.64950000   -49.41330000     2.30000000
  114.64350000   -49.36500000    -4.10000000
  114.64100000   -49.34190000    -5.70000000
  114.63850000   -49.31880000    -5.50000000
  114.63590000   -49.29570000    -1.50000000
  114.63400000   -49.27400000     3.00000000
  114.63210000   -49.25230000     5.90000000
  114.63010000   -49.23070000     6.90000000
  114.62820000   -49.20900000     7.90000000
  114.62630000   -49.18730000    13.40000000
  114.62440000   -49.16570000    17.30000000
  114.62240000   -49.14400000    17.30000000
  114.61940000   -49.12130000    15.40000000
  114.61570000   -49.09780000    14.80000000
  114.61190000   -49.07440000    15.10000000
  114.60820000   -49.05100000    16.30000000
  114.60440000   -49.02750000    16.40000000
  114.60130000   -49.00560000    18.10000000
  114.59810000   -48.98360000    19.30000000
  114.59500000   -48.96160000    15.70000000
  114.59030000   -48.94130000    14.40000000
  114.58530000   -48.92140000    12.40000000
  114.58020000   -48.90160000     8.80000000
  114.57520000   -48.88180000     8.70000000
  114.57010000   -48.86190000    10.40000000
  114.56510000   -48.84210000    12.30000000
  114.67370000   -48.85020000    15.60000000
  114.67110000   -48.83310000    15.20000000
  114.66870000   -48.81620000    14.90000000
  114.66630000   -48.79930000    13.70000000
  114.65860000   -48.76450000    13.20000000
  114.64980000   -48.72780000    13.40000000
  114.63990000   -48.68900000    13.20000000
  114.63490000   -48.66960000    13.10000000
  114.63000000   -48.65020000    12.90000000
  114.62510000   -48.63090000    11.90000000
  114.62010000   -48.61150000    11.90000000
  114.61490000   -48.59210000    12.10000000
  114.60870000   -48.57260000    11.10000000
  114.60260000   -48.55310000    10.90000000
  114.59640000   -48.53350000     8.20000000
  114.59020000   -48.51400000     8.10000000
  114.58230000   -48.49130000     8.10000000
  114.57440000   -48.46860000    10.10000000
  114.56650000   -48.44600000     9.40000000
  114.55850000   -48.42330000     7.70000000
  114.55060000   -48.40060000     8.90000000
  114.54270000   -48.37790000     9.90000000
  114.53480000   -48.35520000    10.20000000
  114.52690000   -48.33250000    10.40000000
  114.49780000   -48.18460000     7.80000000
  114.49520000   -48.15980000     9.10000000
  114.49270000   -48.13510000    10.40000000
  114.49010000   -48.11040000    11.70000000
  114.48750000   -48.08570000    10.20000000
  114.48380000   -48.06200000     9.90000000
  114.47930000   -48.03890000    11.10000000
  114.49740000   -47.97360000    11.20000000
  114.49350000   -47.94680000    11.70000000
  114.48950000   -47.91990000     9.60000000
  114.48560000   -47.89310000     6.50000000
  114.48170000   -47.86630000     7.00000000
  114.47780000   -47.83950000    10.40000000
  114.47390000   -47.81270000    14.60000000
  114.47010000   -47.78590000    18.80000000
  114.46620000   -47.75910000    18.40000000
  114.46230000   -47.73230000    15.40000000
  114.45840000   -47.70550000    11.40000000
  114.45360000   -47.68070000     7.10000000
  114.44810000   -47.65730000     5.50000000
  114.44260000   -47.63380000     4.90000000
  114.43720000   -47.61030000     5.10000000
  114.43170000   -47.58680000     3.50000000
  114.42620000   -47.56330000     4.80000000
  114.42170000   -47.54350000     8.00000000
  114.41890000   -47.53030000     9.20000000
  114.40670000   -47.57690000    -2.50000000
  114.39880000   -47.55470000    -3.30000000
  114.39000000   -47.52890000    -1.90000000
  114.38130000   -47.50310000    -1.40000000
  114.37250000   -47.47730000    -0.90000000
  114.36370000   -47.45160000    -1.40000000
  114.35490000   -47.42580000    -1.80000000
  114.34610000   -47.40000000    -0.50000000
  114.33730000   -47.37430000     0.20000000
  114.31900000   -47.29920000     1.60000000
  114.31430000   -47.27450000    -1.80000000
  114.30960000   -47.24990000    -2.30000000
  114.30480000   -47.22520000    -0.90000000
  114.30010000   -47.20060000    -0.60000000
  114.29530000   -47.17590000     0.40000000
  114.29020000   -47.15100000    -0.30000000
  114.28510000   -47.12620000     0.30000000
  114.28610000   -47.10060000     1.90000000
  114.28900000   -47.07490000     6.40000000
  114.29320000   -47.04940000     5.90000000
  114.29730000   -47.02400000     7.30000000
  114.30150000   -46.99850000     6.80000000
  114.30570000   -46.97310000     7.30000000
  114.30980000   -46.94760000     4.10000000
  114.31400000   -46.92220000     1.80000000
  114.31960000   -46.89590000     6.30000000
  114.32610000   -46.86910000     6.90000000
  114.33270000   -46.84230000     8.40000000
  114.33920000   -46.81550000     8.00000000
  114.34580000   -46.78880000     6.80000000
  114.35230000   -46.76200000     7.30000000
  114.35840000   -46.73610000     7.30000000
  114.36450000   -46.71010000     5.10000000
  114.37070000   -46.68420000     5.60000000
  114.37470000   -46.65890000     4.30000000
  114.37750000   -46.63350000     3.00000000
  114.37870000   -46.60790000     2.50000000
  114.37990000   -46.58230000     1.10000000
  114.38020000   -46.55490000    -0.70000000
  114.38030000   -46.52700000    -1.80000000
  114.38040000   -46.49910000    -2.00000000
  114.38050000   -46.47210000    -0.80000000
  114.38040000   -46.44660000     0.80000000
  114.38220000   -46.43290000     3.00000000
  114.42650000   -46.44360000    -2.00000000
  114.42840000   -46.42720000    -1.40000000
  114.42950000   -46.40540000    -1.30000000
  114.43110000   -46.32910000     1.00000000
  114.43170000   -46.30360000     1.40000000
  114.43220000   -46.27820000     1.90000000
  114.43280000   -46.25270000     0.60000000
  114.43330000   -46.22710000     0.90000000
  114.43380000   -46.20150000     1.40000000
  114.43430000   -46.17610000     1.00000000
  114.43490000   -46.15060000     0.60000000
  114.43540000   -46.12520000    -0.90000000
  114.43600000   -46.09980000    -2.30000000
  114.43650000   -46.07430000    -2.80000000
  114.43700000   -46.04890000    -2.30000000
  114.43760000   -46.02340000    -2.80000000
  114.43810000   -45.99800000    -2.30000000
  114.43890000   -45.97230000    -0.30000000
  114.43990000   -45.94640000     0.40000000
  114.44100000   -45.92050000    -0.20000000
  114.44200000   -45.89460000    -0.60000000
  114.44320000   -45.87000000     0.20000000
  114.44440000   -45.84550000    -0.50000000
  114.44560000   -45.82090000    -0.20000000
  114.44540000   -45.79720000    -4.30000000
  114.44330000   -45.77470000    -3.10000000
  114.44110000   -45.75230000    -1.10000000
  114.43890000   -45.72980000    -1.80000000
  114.43680000   -45.70570000    -5.20000000
  114.43460000   -45.68120000    -5.70000000
  114.43250000   -45.65660000    -4.40000000
  114.43030000   -45.63210000    -3.00000000
  114.42820000   -45.60760000    -0.90000000
  114.42610000   -45.58220000     4.80000000
  114.42430000   -45.55660000    11.70000000
  114.42250000   -45.53100000    17.60000000
  114.42070000   -45.50540000    17.10000000
  114.41890000   -45.47970000    12.20000000
  114.41710000   -45.45410000     6.20000000
  114.41180000   -45.37720000     1.00000000
  114.41000000   -45.35160000     0.60000000
  114.40820000   -45.32600000     1.00000000
  114.40450000   -45.30110000    -2.60000000
  114.40040000   -45.27570000    -1.30000000
  114.39620000   -45.25040000    -0.90000000
  114.39200000   -45.22500000    -1.40000000
  114.38780000   -45.19970000    -0.90000000
  114.38370000   -45.17440000    -0.50000000
  114.37950000   -45.14900000     0.10000000
  114.37530000   -45.12370000    -1.40000000
  114.37120000   -45.09830000     0.90000000
  114.36700000   -45.07300000     2.30000000
  114.36280000   -45.04760000     2.80000000
  114.35950000   -45.02440000     5.00000000
  114.35760000   -45.00740000     0.80000000
  114.35670000   -44.99780000    -0.40000000
  114.33930000   -45.04220000     9.10000000
  114.34090000   -45.01580000     7.80000000
  114.34250000   -44.98930000     8.40000000
  114.34410000   -44.96290000     8.90000000
  114.34570000   -44.93650000    11.30000000
  114.34730000   -44.91000000    10.90000000
  114.34890000   -44.88360000     7.80000000
  114.35050000   -44.85720000     6.60000000
  114.35400000   -44.83150000     8.70000000
  114.35750000   -44.80620000     9.20000000
  114.36100000   -44.78090000    11.40000000
  114.40740000   -44.30920000     1.50000000
  114.41150000   -44.28580000    -1.00000000
  114.41560000   -44.26230000    -0.80000000
  114.42030000   -44.24790000     1.50000000
  114.42510000   -44.23340000     3.80000000
  114.42830000   -44.21750000    -1.00000000
  114.43040000   -44.19760000    -1.80000000
  114.43210000   -44.17320000     1.30000000
  114.37470000   -43.94640000    -2.10000000
  114.37490000   -43.92920000    -0.90000000
  114.37450000   -43.90720000     0.40000000
  114.37410000   -43.88530000     0.50000000
  114.37370000   -43.86330000     0.70000000
  114.37330000   -43.84130000     5.40000000
  114.37290000   -43.81940000     8.30000000
  114.37250000   -43.79740000     8.40000000
  114.37270000   -43.77540000    12.60000000
  114.37510000   -43.75320000     9.90000000
  114.37750000   -43.73090000     8.40000000
  114.38010000   -43.70970000     7.70000000
  114.38260000   -43.68850000     3.10000000
  114.38520000   -43.66730000     2.30000000
  114.38770000   -43.64610000     2.30000000
  114.39030000   -43.62490000     3.30000000
  114.39280000   -43.60370000     5.30000000
  114.39540000   -43.58260000     0.80000000
  114.39790000   -43.56140000     3.50000000
  114.40050000   -43.54020000     4.60000000
  114.40310000   -43.52070000     2.80000000
  114.40570000   -43.50120000     2.60000000
  114.40830000   -43.48170000     5.40000000
  114.40820000   -43.46130000     4.30000000
  114.40820000   -43.44080000     5.30000000
  114.40810000   -43.42040000     6.20000000
  114.40800000   -43.40000000     7.10000000
  114.40790000   -43.37960000     5.30000000
  114.40790000   -43.35920000     2.50000000
  114.40820000   -43.33840000     4.90000000
  114.40910000   -43.31710000     5.90000000
  114.41000000   -43.29570000    11.40000000
  114.41510000   -43.17410000    -6.30000000
  114.41350000   -43.15590000    -8.30000000
  114.41190000   -43.13780000    -5.70000000
  114.41250000   -43.11760000    -4.40000000
  114.41440000   -43.09610000    -0.60000000
  114.41640000   -43.07460000     2.30000000
  114.41830000   -43.05310000     2.50000000
  114.42060000   -43.03290000     6.60000000
  114.42280000   -43.01270000    10.30000000
  114.42320000   -42.99260000    13.10000000
  114.42360000   -42.97250000     5.70000000
  114.42400000   -42.95240000     1.00000000
  114.42440000   -42.93230000     2.80000000
  114.42490000   -42.91220000     3.80000000
  114.42530000   -42.89210000    -0.90000000
  114.42570000   -42.87200000     0.10000000
  114.42610000   -42.85190000     0.10000000
  114.42650000   -42.83180000     0.90000000
  114.42690000   -42.81170000     4.60000000
  114.42780000   -42.79190000     3.50000000
  114.42940000   -42.77210000     3.50000000
  114.43110000   -42.75230000     3.50000000
  114.43270000   -42.73250000     4.30000000
  114.43430000   -42.71260000     1.40000000
  114.43600000   -42.69280000     2.30000000
  114.43760000   -42.67300000     3.30000000
  114.43920000   -42.65320000     2.30000000
  114.44080000   -42.63340000     0.40000000
  114.44230000   -42.61390000     3.30000000
  114.44480000   -42.57590000     5.00000000
  114.44600000   -42.55690000     2.00000000
  114.44720000   -42.53790000    -0.90000000
  114.44930000   -42.52240000    -1.60000000
  114.45150000   -42.50780000     3.50000000
  114.45380000   -42.49320000     4.80000000
  112.92390000   -42.41340000    12.30000000
  112.92640000   -42.38600000    11.10000000
  112.92890000   -42.35870000     9.80000000
  112.93130000   -42.32830000     8.00000000
  112.93180000   -42.29780000    -0.70000000
  112.97420000   -42.28780000    13.40000000
  113.00770000   -42.29610000    20.40000000
  113.04290000   -42.30260000    17.10000000
  113.07810000   -42.30910000    12.90000000
  113.11320000   -42.31550000    10.40000000
  113.14550000   -42.32120000     1.10000000
  113.17100000   -42.32510000     3.50000000
  113.19650000   -42.32890000     4.10000000
  113.22190000   -42.33280000     5.60000000
  113.24700000   -42.33770000     5.80000000
  113.27230000   -42.34290000     6.20000000
  113.29760000   -42.34810000     6.70000000
  113.32160000   -42.35240000     6.70000000
  113.34530000   -42.35640000     7.30000000
  113.36900000   -42.36040000     4.10000000
  113.39940000   -42.36620000    11.80000000
  113.43430000   -42.37320000    10.30000000
  113.46920000   -42.38020000     8.80000000
  113.50480000   -42.38830000     9.10000000
  113.54050000   -42.39650000     6.50000000
  113.57610000   -42.40460000     3.00000000
  113.75880000   -42.44660000     0.50000000
  113.79540000   -42.45500000    -1.30000000
  113.83190000   -42.46340000    -3.00000000
  113.86840000   -42.47180000    -1.90000000
  113.90500000   -42.48020000    -0.90000000
  113.94150000   -42.48850000     2.10000000
  113.97810000   -42.49690000     4.20000000
  114.01460000   -42.50530000     1.50000000
  114.05150000   -42.51380000     2.00000000
  114.08840000   -42.52230000     1.30000000
  114.12530000   -42.53070000     1.40000000
  114.16210000   -42.53920000     0.80000000
  114.19900000   -42.54760000     1.80000000
  114.23590000   -42.55610000     3.80000000
  114.27280000   -42.56460000     4.00000000
  114.30970000   -42.57300000     3.10000000
  114.34650000   -42.58150000     3.30000000
  114.38340000   -42.59000000     7.20000000
  114.51570000   -42.48770000     8.90000000
  114.51580000   -42.46040000     7.70000000
  114.51580000   -42.43310000     7.40000000
  114.51590000   -42.40580000     5.30000000
  114.51600000   -42.37850000     3.10000000
  114.51610000   -42.35110000     0.90000000
  114.51620000   -42.32380000    -2.10000000
  114.51630000   -42.29650000    -7.10000000
  114.51640000   -42.26920000    -3.60000000
  114.51650000   -42.24190000    -2.10000000
  114.51660000   -42.21460000    -2.50000000
  114.51670000   -42.18720000    -4.60000000
  114.51680000   -42.15990000    -5.90000000
  114.51710000   -42.13440000    -5.20000000
  114.51730000   -42.10880000    -5.60000000
  114.51770000   -42.08350000    -5.60000000
  114.51830000   -42.05840000    -4.30000000
  114.51890000   -42.03340000    -2.80000000
  114.51950000   -42.00840000    -4.40000000
  114.52010000   -41.98330000    -7.60000000
  114.52070000   -41.95830000    -7.20000000
  114.52130000   -41.93320000    -6.80000000
  114.52190000   -41.90820000    -8.20000000
  114.52250000   -41.88320000    -6.00000000
  114.52310000   -41.85810000    -4.70000000
  114.52370000   -41.83380000    -3.30000000
  114.52430000   -41.80940000    -4.80000000
  114.52490000   -41.78510000    -5.40000000
  114.52550000   -41.76070000    -5.10000000
  114.52620000   -41.73640000    -7.50000000
  114.52680000   -41.71200000    -8.90000000
  114.52740000   -41.68770000   -10.40000000
  114.50030000   -41.60970000    -8.40000000
  114.48610000   -41.59500000    -8.90000000
  114.47270000   -41.58100000    -9.40000000
  114.45920000   -41.56700000    -9.10000000
  114.44580000   -41.55300000    -6.90000000
  114.43240000   -41.53900000    -5.70000000
  114.41410000   -41.46840000     0.50000000
  114.41520000   -41.44440000    -1.00000000
  114.41620000   -41.42030000    -3.50000000
  114.41730000   -41.39630000    -2.30000000
  114.41830000   -41.37230000    -1.00000000
  114.41940000   -41.34830000     0.30000000
  114.42070000   -41.32370000     1.50000000
  114.42230000   -41.29850000     1.90000000
  114.42400000   -41.27320000     0.60000000
  114.42560000   -41.24800000     0.10000000
  114.42720000   -41.22270000     0.50000000
  114.42900000   -41.19840000     1.80000000
  114.43070000   -41.17400000    -0.70000000
  114.43290000   -41.14890000     0.10000000
  114.43540000   -41.12350000    -1.40000000
  114.43780000   -41.09810000    -1.00000000
  114.44020000   -41.07270000    -2.50000000
  114.44260000   -41.04730000    -1.90000000
  114.44510000   -41.02190000    -4.40000000
  114.44750000   -40.99650000    -6.70000000
  114.44990000   -40.97110000    -8.10000000
  114.45230000   -40.94570000    -7.70000000
  114.45470000   -40.92030000    -6.30000000
  114.45730000   -40.89710000    -6.80000000
  114.45950000   -40.87430000    -7.50000000
  114.46140000   -40.85170000    -6.40000000
  114.47200000   -40.80230000    -2.30000000
  114.47380000   -40.77680000    -1.90000000
  114.47550000   -40.75130000    -2.50000000
  114.47600000   -40.72720000    -6.90000000
  114.47640000   -40.70300000    -5.60000000
  114.47690000   -40.67880000    -4.40000000
  114.47160000   -40.65570000    -6.70000000
  114.46640000   -40.63250000    -7.40000000
  114.46110000   -40.60930000    -8.00000000
  114.45580000   -40.58610000    -6.00000000
  114.45050000   -40.56290000    -6.70000000
  114.44530000   -40.53980000   -10.10000000
  114.44220000   -40.52350000    -8.80000000
  114.57730000   -40.47760000    -1.30000000
  114.57350000   -40.44950000    -1.40000000
  114.56980000   -40.42130000     0.30000000
  114.56610000   -40.39320000     3.60000000
  114.56240000   -40.36500000     3.50000000
  114.55870000   -40.33690000     2.30000000
  114.55490000   -40.30880000     0.20000000
  114.55150000   -40.28160000     1.00000000
  114.54800000   -40.25440000     2.50000000
  114.54450000   -40.22720000     3.10000000
  114.54100000   -40.20000000     3.80000000
  114.53640000   -40.17180000     1.60000000
  114.53170000   -40.14350000     2.30000000
  114.52710000   -40.11530000     2.10000000
  114.52250000   -40.08710000    -0.90000000
  114.51790000   -40.05890000     7.20000000
  114.51320000   -40.03060000     5.10000000
  114.50860000   -40.00240000     3.80000000
  114.50400000   -39.97420000     7.40000000
  114.49930000   -39.94570000     5.20000000
  114.49460000   -39.91720000     2.10000000
  114.49000000   -39.88870000     4.70000000
  114.48530000   -39.86020000     3.50000000
  114.48060000   -39.83170000     4.30000000
  114.47600000   -39.80320000     2.10000000
  114.47130000   -39.77470000     1.90000000
  114.46660000   -39.74620000     3.50000000
  114.46200000   -39.71780000     5.20000000
  114.45790000   -39.68900000     8.40000000
  114.45490000   -39.65990000     7.40000000
  114.45190000   -39.63080000     7.30000000
  114.46510000   -39.51670000    -2.50000000
  114.46610000   -39.50350000    -2.00000000
  114.46730000   -39.48570000    -3.00000000
  114.51840000   -39.48850000    -7.80000000
  114.52100000   -39.45860000    -9.20000000
  114.52400000   -39.42970000    -5.30000000
  114.52750000   -39.40150000    -6.50000000
  114.53090000   -39.37330000    -6.70000000
  114.53430000   -39.34510000    -7.00000000
  114.53780000   -39.31690000    -5.40000000
  114.54040000   -39.28800000    -8.90000000
  114.54170000   -39.25820000   -11.80000000
  114.54300000   -39.22830000   -11.90000000
  114.54310000   -39.19860000   -14.20000000
  114.54310000   -39.16900000   -16.10000000
  114.54320000   -39.13930000   -17.10000000
  114.54590000   -39.11250000   -12.20000000
  114.54870000   -39.08570000   -11.70000000
  114.55150000   -39.05890000   -12.10000000
  114.55430000   -39.03210000   -12.40000000
  114.55710000   -39.00530000   -11.90000000
  114.55990000   -38.97850000   -12.30000000
  114.56230000   -38.95110000   -11.70000000
  114.56450000   -38.92310000   -12.90000000
  114.56670000   -38.89520000   -12.30000000
  114.56890000   -38.86600000   -13.40000000
  114.57100000   -38.83680000   -11.80000000
  114.57320000   -38.80760000   -12.90000000
  114.57530000   -38.77840000   -13.90000000
  114.57750000   -38.74920000   -15.90000000
  114.57970000   -38.72010000   -15.30000000
  114.58180000   -38.69090000   -14.60000000
  114.56940000   -38.51710000   -13.30000000
  114.56660000   -38.48920000   -12.70000000
  114.56370000   -38.46130000   -11.10000000
  114.56080000   -38.43350000   -13.30000000
  114.55800000   -38.40560000   -12.70000000
  114.55510000   -38.37770000   -11.10000000
  114.55220000   -38.34990000   -10.40000000
  114.54930000   -38.32200000    -9.90000000
  114.54650000   -38.29420000   -10.20000000
  114.54360000   -38.26630000   -10.40000000
  114.54070000   -38.23840000    -9.90000000
  114.53780000   -38.21060000    -7.50000000
  114.53500000   -38.18550000    -7.00000000
  114.53240000   -38.15840000    -7.10000000
  114.52980000   -38.13070000    -7.40000000
  114.52720000   -38.10300000    -7.70000000
  114.52460000   -38.07530000    -7.10000000
  114.52170000   -38.04870000   -12.30000000
  114.51630000   -38.03210000   -12.70000000
  114.52360000   -38.03780000   -13.40000000
  114.52130000   -38.00970000   -13.70000000
  114.51900000   -37.98150000   -13.90000000
  114.51670000   -37.95340000   -12.40000000
  114.51440000   -37.92530000   -12.80000000
  114.51220000   -37.89710000   -13.10000000
  114.50990000   -37.86900000   -13.40000000
  114.50760000   -37.84080000   -13.70000000
  114.50530000   -37.81270000   -10.30000000
  114.50210000   -37.78500000   -13.20000000
  114.49720000   -37.75740000   -11.70000000
  114.49230000   -37.72980000    -9.30000000
  114.49430000   -37.70150000    -6.20000000
  114.49630000   -37.67330000    -7.40000000
  114.49830000   -37.64500000    -6.80000000
  114.50030000   -37.61670000    -7.10000000
  114.50230000   -37.58840000    -6.50000000
  114.50420000   -37.56020000    -5.80000000
  114.50620000   -37.53190000    -9.80000000
  114.50820000   -37.50360000   -13.80000000
  114.51020000   -37.47540000   -16.80000000
  114.51620000   -37.39050000   -22.30000000
  114.51820000   -37.36200000   -22.50000000
  114.52010000   -37.33340000   -22.80000000
  114.52210000   -37.30490000   -24.00000000
  114.52410000   -37.27630000   -25.30000000
  114.52610000   -37.24780000   -24.50000000
  114.52810000   -37.21920000   -23.00000000
  114.53010000   -37.19070000   -23.30000000
  114.53190000   -37.16190000   -28.40000000
  114.53320000   -37.13220000   -35.00000000
  114.53440000   -37.10260000   -44.50000000
  114.53570000   -37.07290000   -51.00000000
  114.53690000   -37.04320000   -52.10000000
  114.53820000   -37.01370000   -51.50000000
  114.53760000   -36.98380000   -49.30000000
  114.53700000   -36.95380000   -39.30000000
  114.53640000   -36.92390000   -26.60000000
  114.53580000   -36.89400000   -13.90000000
  114.53520000   -36.86410000    -7.70000000
  114.53490000   -36.84920000    -5.50000000
  114.53460000   -36.83420000    -6.00000000
  114.53410000   -36.80430000    -8.90000000
  114.53350000   -36.77440000   -12.80000000
  114.53290000   -36.74450000   -16.50000000
  114.53230000   -36.71460000   -20.40000000
  114.53140000   -36.68440000   -25.80000000
  114.52960000   -36.65350000   -27.30000000
  114.52780000   -36.62260000   -27.40000000
  114.52600000   -36.59180000   -30.30000000
  114.52420000   -36.56110000   -31.30000000
  114.52230000   -36.53050000   -34.30000000
  114.52050000   -36.49990000   -39.80000000
  114.52730000   -36.44260000   -44.30000000
  114.53120000   -36.41420000   -44.60000000
  114.53700000   -36.38560000   -37.00000000
  114.54290000   -36.35690000   -28.90000000
  114.54870000   -36.32830000   -22.80000000
  114.55460000   -36.29970000   -24.90000000
  114.56040000   -36.27110000   -28.00000000
  114.56620000   -36.24240000   -31.00000000
  114.57210000   -36.21380000   -34.10000000
  114.57790000   -36.18520000   -33.50000000
  114.58370000   -36.15660000   -29.10000000
  114.58280000   -36.09880000   -25.80000000
  114.57950000   -36.06890000   -28.60000000
  114.57600000   -36.03840000   -34.50000000
  114.57250000   -36.00790000   -39.30000000
  114.56680000   -35.97750000   -49.80000000
  114.56450000   -35.96490000   -49.10000000
  114.53110000   -35.82630000   -51.30000000
  114.51060000   -35.80090000   -50.00000000
  114.49010000   -35.77560000   -48.80000000
  114.46950000   -35.74880000   -49.80000000
  114.44880000   -35.72170000   -50.10000000
  114.42810000   -35.69470000   -51.50000000
  114.40750000   -35.66760000   -46.50000000
  114.38680000   -35.64050000   -39.50000000
  114.36610000   -35.61340000   -31.80000000
  114.34550000   -35.58630000   -25.80000000
  114.32280000   -35.56240000   -25.50000000
  114.30010000   -35.53850000   -28.10000000
  114.27720000   -35.51430000   -37.50000000
  114.25440000   -35.49000000   -46.50000000
  114.23150000   -35.46580000   -52.80000000
  114.20860000   -35.44160000   -54.30000000
  114.18570000   -35.41740000   -51.30000000
  114.16280000   -35.39310000   -48.30000000
  114.14000000   -35.36890000   -44.50000000
  114.11710000   -35.34470000   -39.60000000
  114.09420000   -35.32050000   -37.60000000
  114.07130000   -35.29620000   -37.30000000
  114.04840000   -35.27200000   -39.00000000
  114.02550000   -35.24780000   -38.80000000
  114.00300000   -35.22390000   -38.10000000
  113.98050000   -35.20010000   -38.80000000
  113.95800000   -35.17620000   -38.60000000
  113.93550000   -35.15230000   -37.50000000
  113.91300000   -35.12850000   -36.50000000
  113.89050000   -35.10460000   -36.30000000
  113.87020000   -35.08150000   -32.00000000
  113.85060000   -35.05870000   -31.90000000
  113.83090000   -35.03580000   -33.80000000
  113.81120000   -35.01300000   -34.50000000
  113.79160000   -34.99010000   -37.10000000
  113.77190000   -34.96720000   -41.60000000
  113.73230000   -34.92110000   -57.50000000
  113.71250000   -34.89800000   -63.80000000
  113.69260000   -34.87490000   -68.40000000
  113.67280000   -34.85180000   -62.80000000
  113.65300000   -34.82870000   -53.50000000
  113.63320000   -34.80560000   -44.10000000
  113.61340000   -34.78250000   -42.10000000
  113.59360000   -34.75950000   -44.00000000
  113.57380000   -34.73640000   -47.50000000
  113.55390000   -34.71330000   -51.00000000
  113.53470000   -34.69040000   -50.80000000
  113.51580000   -34.66770000   -50.30000000
  113.49690000   -34.64500000   -50.30000000
  113.47800000   -34.62240000   -51.10000000
  113.45910000   -34.59970000   -51.00000000
  113.44020000   -34.57700000   -51.00000000
  113.42130000   -34.55430000   -48.10000000
  113.40240000   -34.53170000   -45.30000000
  113.38350000   -34.50900000   -43.50000000
  113.36460000   -34.48630000   -43.30000000
  113.34570000   -34.46370000   -43.30000000
  113.32680000   -34.44100000   -43.10000000
  113.30790000   -34.41830000   -43.10000000
  113.28890000   -34.39550000   -44.30000000
  113.26980000   -34.37260000   -43.30000000
  113.25080000   -34.34970000   -42.30000000
  113.23180000   -34.32680000   -42.30000000
  113.21170000   -34.30330000   -44.30000000
  113.19110000   -34.27930000   -43.10000000
  113.17100000   -34.25600000   -40.10000000
  113.15100000   -34.23270000   -39.10000000
  113.13100000   -34.20940000   -38.10000000
  113.11090000   -34.18610000   -36.10000000
  113.09090000   -34.16290000   -34.30000000
  113.07090000   -34.13960000   -31.30000000
  113.05080000   -34.11630000   -30.30000000
  113.03080000   -34.09300000   -29.30000000
  113.01070000   -34.06970000   -28.30000000
  112.99070000   -34.04640000   -26.30000000
  112.97070000   -34.02320000   -26.30000000
  112.91440000   -34.00230000   -30.30000000
  112.87940000   -34.00270000   -28.40000000
  112.84450000   -34.00310000   -26.60000000
  112.80950000   -34.00350000   -25.80000000
  112.77460000   -34.00390000   -23.00000000
  112.73960000   -34.00430000   -22.10000000
  112.70470000   -34.00470000   -21.30000000
  112.66970000   -34.00510000   -19.40000000
  112.63480000   -34.00550000   -16.80000000
  112.59980000   -34.00590000   -14.90000000
  112.56490000   -34.00630000   -13.20000000
  112.52990000   -34.00670000   -12.30000000
  112.49510000   -34.00710000   -10.30000000
  112.46030000   -34.00750000    -9.40000000
  112.42540000   -34.00790000    -9.40000000
  112.32790000   -34.01070000   -14.40000000
  112.29200000   -34.01110000   -14.40000000
  112.25610000   -34.01150000   -16.30000000
  112.22020000   -34.01190000   -18.10000000
  112.18420000   -34.01230000   -19.90000000
  112.14830000   -34.01270000   -21.80000000
  112.11240000   -34.01310000   -23.80000000
  112.07650000   -34.01350000   -24.60000000
  112.04060000   -34.01390000   -26.50000000
  112.00470000   -34.01420000   -25.60000000
  111.96880000   -34.01460000   -22.90000000
  111.93290000   -34.01500000   -22.00000000
  111.89790000   -34.01540000   -19.60000000
  111.86280000   -34.01580000   -17.80000000
  111.82770000   -34.01620000   -16.00000000
  111.79260000   -34.01660000   -16.00000000
  111.75760000   -34.01700000   -15.20000000
  111.72250000   -34.01740000   -12.40000000
  111.68740000   -34.01780000   -11.60000000
  111.65240000   -34.01820000    -8.90000000
  111.61730000   -34.01860000    -7.10000000
  111.58220000   -34.01900000    -5.30000000
  111.54710000   -34.01940000    -4.40000000
  111.51210000   -34.01980000    -3.50000000
  111.47680000   -34.02020000    -3.80000000
  111.44160000   -34.02060000    -3.00000000
  111.40630000   -34.02100000    -1.10000000
  111.37110000   -34.02140000     0.80000000
  111.33580000   -34.02180000     2.50000000
  111.30060000   -34.02220000     4.40000000
  111.26530000   -34.02260000     6.20000000
  111.23010000   -34.02300000     8.90000000
  111.19480000   -34.02340000     8.00000000
  111.15960000   -34.02380000     8.00000000
  111.12430000   -34.02420000     7.00000000
  111.08910000   -34.02460000     5.20000000
  111.05420000   -34.02500000     4.80000000
  111.02140000   -34.02350000     8.10000000
  110.98870000   -34.02200000     9.90000000
  110.95600000   -34.02050000    11.10000000
  110.92320000   -34.01900000    12.90000000
  110.89050000   -34.01740000    14.10000000
  110.85780000   -34.01590000    14.20000000
  110.82430000   -34.01380000    13.10000000
  110.79040000   -34.01110000    13.30000000
  110.75650000   -34.00850000    13.40000000
  110.72250000   -34.00590000    13.80000000
  110.68860000   -34.00320000    13.10000000
  110.65460000   -34.00060000    12.10000000
  110.62050000   -33.99800000    11.40000000
  110.58650000   -33.99540000    10.70000000
  110.55240000   -33.99270000     9.10000000
  110.51840000   -33.99010000     8.40000000
  110.48430000   -33.98750000     6.80000000
  110.45070000   -33.98590000     7.60000000
  110.41710000   -33.98440000     7.80000000
  110.38340000   -33.98280000     9.70000000
  110.34980000   -33.98120000    12.60000000
  110.31610000   -33.97960000    15.40000000
  110.28250000   -33.97810000    18.30000000
  110.24900000   -33.97650000    20.60000000
  110.21560000   -33.97490000    22.50000000
  110.18210000   -33.97340000    23.60000000
  110.14870000   -33.97180000    23.80000000
  110.11520000   -33.97020000    22.90000000
  110.08170000   -33.96870000    22.30000000
  110.04830000   -33.96710000    20.40000000
  110.01480000   -33.96550000    20.60000000
  109.98140000   -33.96400000    21.60000000
  109.94850000   -33.96260000    23.40000000
  109.91590000   -33.96140000    22.60000000
  109.88340000   -33.96020000    20.90000000
  109.85070000   -33.95890000    18.00000000
  109.81810000   -33.95770000    14.40000000
  109.78540000   -33.95650000    12.80000000
  109.75270000   -33.95530000    10.10000000
  109.72000000   -33.95410000     8.40000000
  109.68740000   -33.95280000     5.70000000
  109.65470000   -33.95160000    -1.60000000
  109.62200000   -33.95040000   -11.70000000
  109.58800000   -33.95020000   -21.10000000
  109.55370000   -33.95010000   -26.60000000
  109.51940000   -33.95010000   -32.10000000
  109.48500000   -33.95010000   -31.30000000
  109.45070000   -33.95010000   -29.30000000
  109.41640000   -33.95010000   -27.50000000
  109.38210000   -33.95010000   -23.80000000
  109.34780000   -33.95010000   -20.10000000
  109.31350000   -33.95000000   -17.40000000
  109.27920000   -33.95000000   -15.60000000
  109.24490000   -33.95000000   -14.70000000
  109.21060000   -33.95000000   -13.80000000
  109.17630000   -33.95000000   -16.40000000
  109.14260000   -33.94960000   -18.30000000
  109.10880000   -33.94930000   -19.00000000
  109.07500000   -33.94900000   -20.90000000
  109.04130000   -33.94860000   -22.60000000
  109.00740000   -33.94830000   -20.80000000
  108.97270000   -33.94820000   -17.00000000
  108.93800000   -33.94810000   -15.30000000
  108.90330000   -33.94790000   -19.80000000
  108.86860000   -33.94780000   -24.30000000
  108.83390000   -33.94770000   -29.80000000
  108.79920000   -33.94760000   -30.80000000
  108.76450000   -33.94750000   -29.80000000
  108.72980000   -33.94730000   -28.90000000
  108.69510000   -33.94720000   -26.10000000
  108.66040000   -33.94710000   -25.30000000
  108.62580000   -33.94700000   -24.10000000
  108.59140000   -33.94640000   -25.60000000
  108.55690000   -33.94570000   -29.30000000
  108.52250000   -33.94510000   -31.90000000
  108.48800000   -33.94440000   -32.80000000
  108.45360000   -33.94380000   -28.10000000
  108.41920000   -33.94320000   -19.80000000
  108.38480000   -33.94470000    -5.10000000
  108.35050000   -33.94620000     3.10000000
  108.31660000   -33.94620000     9.60000000
  108.28280000   -33.94620000    14.20000000
  108.24890000   -33.94620000    15.90000000
  108.21510000   -33.94620000    16.80000000
  108.18120000   -33.94620000    14.20000000
  108.14730000   -33.94620000    11.40000000
  108.11260000   -33.94620000     7.10000000
  108.07790000   -33.94620000     4.30000000
  108.04300000   -33.94550000    -0.30000000
  108.00740000   -33.94210000    -4.60000000
  108.01180000   -33.98760000    -9.30000000
  108.02400000   -34.04250000   -15.40000000
  108.03010000   -34.07000000   -16.80000000
  108.03620000   -34.09750000   -17.30000000
  108.04230000   -34.12500000   -18.60000000
  108.04840000   -34.15250000   -20.90000000
  108.05450000   -34.17990000   -22.40000000
  108.06060000   -34.20740000   -24.80000000
  108.08470000   -34.31720000   -33.30000000
  108.08920000   -34.34460000   -32.80000000
  108.09370000   -34.37210000   -33.30000000
  108.09820000   -34.39950000   -32.80000000
  108.10270000   -34.42700000   -31.50000000
  108.10710000   -34.45440000   -29.30000000
  108.11160000   -34.48190000   -27.80000000
  108.11610000   -34.50920000   -26.50000000
  108.12050000   -34.53640000   -26.10000000
  108.12500000   -34.56370000   -22.00000000
  108.12940000   -34.59100000   -23.30000000
