   82.25030000   -57.08410000    -8.60000000
   82.23590000   -57.10900000    -7.80000000
   82.22160000   -57.13390000    -6.10000000
   82.21440000   -57.14630000    -6.20000000
   82.18720000   -57.19360000    -0.70000000
   82.17860000   -57.20860000     1.90000000
   82.16470000   -57.23330000     6.50000000
   82.10620000   -57.32300000    40.80000000
   82.09350000   -57.34670000    40.80000000
   82.08070000   -57.37060000    38.80000000
   82.06790000   -57.39450000    36.80000000
   82.05520000   -57.41830000    38.50000000
   82.04240000   -57.44220000    42.30000000
   82.03090000   -57.46370000    45.10000000
   82.12200000   -57.46930000    38.00000000
   82.17130000   -57.46970000    35.10000000
   82.22060000   -57.47020000    32.30000000
   82.27000000   -57.47060000    29.40000000
   82.31930000   -57.47110000    20.00000000
   82.36860000   -57.47150000    10.70000000
   82.46950000   -57.51060000    15.20000000
   82.51090000   -57.52400000    14.90000000
   82.55230000   -57.53730000    17.60000000
   82.59360000   -57.55070000    20.30000000
   82.63500000   -57.56410000    22.90000000
   82.67640000   -57.57740000    23.80000000
   82.71760000   -57.59070000    22.30000000
   82.75870000   -57.60400000    20.30000000
   82.79990000   -57.61720000    18.30000000
   82.84080000   -57.63040000    15.20000000
   82.88060000   -57.64350000    13.20000000
   82.92050000   -57.65650000    11.20000000
   82.96030000   -57.66960000    10.10000000
   83.00020000   -57.68260000     9.90000000
   83.04000000   -57.69560000    10.80000000
   83.07980000   -57.70870000    12.40000000
   83.11880000   -57.72140000    11.90000000
   83.15700000   -57.73380000    12.80000000
   83.19510000   -57.74620000    13.70000000
   83.24410000   -57.76150000    15.40000000
   83.28210000   -57.77580000    15.90000000
   83.31420000   -57.78790000    15.90000000
   83.34500000   -57.79960000    15.60000000
   83.36560000   -57.80730000    16.80000000
   83.36880000   -57.76620000    11.80000000
   83.33290000   -57.75500000     6.10000000
   83.31050000   -57.75560000     6.00000000
   83.21840000   -57.75730000    17.30000000
   83.15580000   -57.72820000    17.90000000
   83.12450000   -57.71360000    13.60000000
   83.09320000   -57.69900000     7.30000000
   83.06180000   -57.68440000     5.60000000
   83.03050000   -57.66980000     5.80000000
   82.99920000   -57.65520000     5.10000000
   82.95220000   -57.63330000     2.30000000
   82.88750000   -57.63140000     8.70000000
   82.84250000   -57.63210000    15.10000000
   82.79750000   -57.63290000    21.50000000
   82.75250000   -57.63370000    29.90000000
   82.70350000   -57.63460000    34.80000000
   82.66380000   -57.63560000    39.30000000
   82.62180000   -57.62150000    38.00000000
   82.58970000   -57.60720000    35.50000000
   82.55760000   -57.59290000    33.00000000
   82.52520000   -57.57760000    31.00000000
   82.49280000   -57.56220000    28.50000000
   82.46150000   -57.54640000    28.50000000
   82.43710000   -57.53370000    30.40000000
   82.34160000   -57.52980000    35.50000000
   82.29550000   -57.52950000    40.30000000
   82.24940000   -57.52920000    43.00000000
   82.20340000   -57.52890000    45.80000000
   82.15730000   -57.52870000    48.80000000
   82.11120000   -57.52840000    51.50000000
   82.06480000   -57.52840000    56.00000000
   82.01730000   -57.52970000    59.80000000
   81.96980000   -57.53110000    62.50000000
   81.92230000   -57.53240000    61.30000000
   81.87480000   -57.53370000    61.30000000
   81.82530000   -57.53500000    58.60000000
   81.77570000   -57.53640000    58.50000000
   81.72620000   -57.53770000    57.50000000
   81.67660000   -57.53900000    52.60000000
   81.62700000   -57.54030000    47.80000000
   81.57750000   -57.54160000    44.00000000
   81.52850000   -57.54290000    41.00000000
   81.48000000   -57.54420000    40.00000000
   81.43140000   -57.54550000    41.80000000
   81.36020000   -57.52310000    43.00000000
   81.32810000   -57.50860000    44.50000000
   81.29640000   -57.49370000    45.80000000
   81.26470000   -57.47890000    49.00000000
   81.23940000   -57.46710000    52.80000000
   81.12350000   -57.45370000    56.00000000
   81.10070000   -57.44360000    56.80000000
   81.07790000   -57.43360000    56.80000000
   81.05510000   -57.42350000    57.50000000
   81.03230000   -57.41350000    57.50000000
   81.00950000   -57.40340000    57.30000000
   80.99130000   -57.39540000    57.00000000
   80.95810000   -57.38020000    55.50000000
   80.92810000   -57.36620000    56.50000000
   80.90410000   -57.35500000    56.50000000
   80.81030000   -57.35410000    53.10000000
   80.76630000   -57.35500000    53.00000000
   80.72240000   -57.35590000    52.00000000
   80.67850000   -57.35680000    51.00000000
   80.63460000   -57.35770000    49.10000000
   80.59060000   -57.35860000    43.50000000
   80.54670000   -57.35950000    40.50000000
   80.50280000   -57.36040000    38.60000000
   80.45920000   -57.36130000    38.80000000
   80.41560000   -57.36220000    41.50000000
   80.37200000   -57.36310000    43.30000000
   80.32580000   -57.36400000    43.10000000
   80.27970000   -57.36490000    44.00000000
   80.23360000   -57.36580000    44.80000000
   80.18750000   -57.36670000    45.80000000
   80.14130000   -57.36770000    46.50000000
   80.09520000   -57.36860000    49.30000000
   80.04910000   -57.36950000    52.00000000
   80.00160000   -57.37120000    50.10000000
   79.95330000   -57.37350000    50.00000000
   79.90390000   -57.37580000    49.00000000
   79.85440000   -57.37810000    48.80000000
   79.80500000   -57.38030000    48.60000000
   79.75550000   -57.38260000    49.30000000
   79.70610000   -57.38490000    49.10000000
   79.65670000   -57.38720000    49.00000000
   79.60720000   -57.38950000    47.80000000
   79.55780000   -57.39180000    46.80000000
   79.50830000   -57.39410000    45.60000000
   79.45890000   -57.39630000    44.50000000
   79.40990000   -57.39840000    46.00000000
   79.36260000   -57.39940000    45.00000000
   79.31580000   -57.40040000    44.50000000
   79.26910000   -57.40150000    43.30000000
   79.22230000   -57.40250000    43.30000000
   79.17550000   -57.40350000    45.10000000
   79.12880000   -57.40460000    46.00000000
   79.08200000   -57.40560000    46.80000000
   79.03470000   -57.40600000    47.00000000
   78.98700000   -57.40610000    48.00000000
   78.93940000   -57.40620000    48.00000000
   78.89170000   -57.40630000    48.80000000
   78.84400000   -57.40640000    47.80000000
   78.79640000   -57.40650000    47.00000000
   78.75060000   -57.40660000    48.10000000
   78.70450000   -57.40680000    48.10000000
   78.65840000   -57.40700000    48.10000000
   78.61240000   -57.40720000    47.30000000
   78.56630000   -57.40740000    46.30000000
   78.52160000   -57.40810000    48.00000000
   78.47790000   -57.40910000    48.00000000
   78.43420000   -57.41010000    47.80000000
   78.39040000   -57.41110000    47.80000000
   78.34670000   -57.41220000    47.80000000
   78.30300000   -57.41320000    47.60000000
   78.25990000   -57.41390000    48.00000000
   78.21900000   -57.41470000    49.80000000
   78.17810000   -57.41550000    49.60000000
   78.13720000   -57.41630000    50.50000000
   78.09640000   -57.41710000    50.50000000
   78.05550000   -57.41780000    49.50000000
   78.01460000   -57.41860000    47.50000000
   77.97370000   -57.41940000    47.50000000
   77.93290000   -57.42020000    48.30000000
   77.89200000   -57.42100000    50.10000000
   77.85150000   -57.42170000    51.30000000
   77.81090000   -57.42250000    51.30000000
   77.77850000   -57.42320000    51.30000000
   77.82100000   -57.45140000    56.00000000
   77.77500000   -57.45450000    60.30000000
   77.72900000   -57.45770000    60.10000000
   77.68310000   -57.46090000    59.80000000
   77.63710000   -57.46400000    53.00000000
   77.59110000   -57.46720000    40.60000000
   77.54510000   -57.47040000    29.10000000
   77.49910000   -57.47350000    22.30000000
   77.45320000   -57.47670000    19.30000000
   77.40720000   -57.47990000    18.90000000
   77.36070000   -57.48310000    19.30000000
   77.31410000   -57.48630000    21.80000000
   77.26760000   -57.48950000    24.30000000
   77.22110000   -57.49270000    27.80000000
   77.17460000   -57.49590000    32.30000000
   77.12810000   -57.49910000    34.80000000
   77.08160000   -57.50230000    37.30000000
   77.03510000   -57.50560000    40.00000000
   76.98870000   -57.50930000    41.50000000
   76.94230000   -57.51290000    42.30000000
   76.89590000   -57.51650000    42.80000000
   76.84940000   -57.52020000    44.50000000
   76.80260000   -57.52380000    50.30000000
   76.75570000   -57.52750000    57.50000000
   76.70880000   -57.53120000    61.00000000
   76.66190000   -57.53480000    64.50000000
   76.61500000   -57.53850000    63.30000000
   76.56810000   -57.54210000    60.10000000
   76.52120000   -57.54500000    55.30000000
   76.47440000   -57.54680000    53.30000000
   76.42750000   -57.54860000    52.10000000
   76.38060000   -57.55040000    52.00000000
   76.33380000   -57.55220000    46.30000000
   76.28690000   -57.55400000    40.50000000
   76.24020000   -57.55580000    39.50000000
   76.19340000   -57.55760000    39.30000000
   76.14670000   -57.55940000    38.30000000
   76.09990000   -57.56120000    37.10000000
   76.01050000   -57.45280000    23.90000000
   76.00850000   -57.42660000    20.90000000
   76.00630000   -57.39980000    21.30000000
   76.00410000   -57.37310000    21.60000000
   76.00180000   -57.34630000    23.80000000
   75.99960000   -57.31950000    26.90000000
   75.99740000   -57.29280000    30.10000000
   75.99520000   -57.26600000    32.30000000
   75.99290000   -57.23920000    35.50000000
   75.99070000   -57.21250000    39.50000000
   75.98850000   -57.18570000    41.80000000
   75.98670000   -57.16430000    43.50000000
   75.90120000   -57.11130000    49.80000000
   75.86770000   -57.09260000    50.50000000
   75.83420000   -57.07390000    51.00000000
   75.80070000   -57.05520000    47.80000000
   75.76720000   -57.03650000    48.50000000
   75.73370000   -57.01780000    50.00000000
   75.70010000   -56.99910000    50.60000000
   75.66660000   -56.98040000    47.50000000
   75.63310000   -56.96170000    45.30000000
   75.59960000   -56.94300000    42.10000000
   75.56610000   -56.92430000    40.00000000
   75.53250000   -56.90560000    38.80000000
   75.50570000   -56.89060000    38.00000000
   75.40450000   -56.88180000    37.30000000
   75.35650000   -56.88020000    39.30000000
   75.30850000   -56.87850000    41.30000000
   75.26050000   -56.87680000    46.00000000
   75.21180000   -56.87580000    44.80000000
   75.16220000   -56.87570000    44.80000000
   75.11270000   -56.87560000    44.80000000
   75.06310000   -56.87550000    45.00000000
   75.01350000   -56.87550000    50.50000000
   74.96390000   -56.87540000    57.00000000
   74.91430000   -56.87530000    60.80000000
   74.86450000   -56.87520000    61.60000000
   74.81480000   -56.87500000    63.60000000
   74.76520000   -56.87460000    63.60000000
   74.71550000   -56.87420000    62.80000000
   74.66710000   -56.87440000    63.50000000
   74.61960000   -56.87500000    59.60000000
   74.57200000   -56.87560000    54.00000000
   74.52550000   -56.87590000    48.80000000
   74.48890000   -56.87590000    43.30000000
   74.46390000   -56.87150000    44.50000000
   74.41750000   -56.87150000    37.50000000
   74.37110000   -56.87150000    32.80000000
   74.32470000   -56.87140000    29.00000000
   74.27830000   -56.87140000    30.00000000
   74.23210000   -56.87170000    31.20000000
   74.18610000   -56.87260000    32.10000000
   74.14000000   -56.87350000    34.80000000
   74.09400000   -56.87440000    37.50000000
   74.04800000   -56.87530000    39.30000000
   74.00200000   -56.87630000    41.10000000
   73.95600000   -56.87720000    43.00000000
   73.90990000   -56.87810000    45.60000000
   73.86320000   -56.87900000    44.10000000
   73.81650000   -56.87990000    42.30000000
   73.76980000   -56.88080000    41.10000000
   73.72310000   -56.88170000    37.30000000
   73.67640000   -56.88260000    37.30000000
   73.62970000   -56.88350000    38.10000000
   73.58300000   -56.88450000    38.00000000
   73.53630000   -56.88540000    38.00000000
   73.48960000   -56.88630000    38.00000000
   73.44290000   -56.88720000    38.80000000
   73.39620000   -56.88810000    40.50000000
   73.34930000   -56.88880000    39.80000000
   73.30200000   -56.88880000    40.00000000
   73.25460000   -56.88870000    40.00000000
   73.20730000   -56.88860000    40.00000000
   73.15990000   -56.88860000    42.80000000
   73.11260000   -56.88850000    44.80000000
   73.06520000   -56.88840000    46.60000000
   73.01790000   -56.88840000    48.50000000
   72.97050000   -56.88830000    50.30000000
   72.92320000   -56.88820000    53.10000000
   72.87580000   -56.88820000    54.10000000
   72.82850000   -56.88810000    57.00000000
   72.78120000   -56.88800000    59.80000000
   72.73360000   -56.88800000    59.50000000
   72.68600000   -56.88790000    59.50000000
   72.63840000   -56.88780000    59.50000000
   72.59080000   -56.88780000    59.50000000
   72.54330000   -56.88770000    56.80000000
   72.49570000   -56.88760000    55.00000000
   72.44810000   -56.88760000    55.00000000
   72.40050000   -56.88750000    55.00000000
   72.35300000   -56.88740000    57.80000000
   72.30540000   -56.88740000    60.50000000
   72.25720000   -56.88740000    62.10000000
   72.20810000   -56.88770000    64.00000000
   72.15900000   -56.88800000    65.90000000
   72.11000000   -56.88830000    65.90000000
   72.06120000   -56.88860000    67.40000000
   72.01290000   -56.88890000    70.20000000
   71.96450000   -56.88920000    73.00000000
   71.91620000   -56.88950000    75.80000000
   71.86790000   -56.88980000    78.50000000
   71.81960000   -56.89010000    80.40000000
   71.77130000   -56.89040000    83.20000000
   71.72300000   -56.89070000    85.00000000
   71.67470000   -56.89100000    87.80000000
   71.62640000   -56.89130000    87.80000000
   71.58000000   -56.89160000    90.20000000
   71.53380000   -56.89250000    90.70000000
   71.46390000   -56.89570000    86.00000000
   71.43480000   -56.89730000    85.90000000
   71.40570000   -56.89890000    85.80000000
   71.37660000   -56.90050000    83.80000000
   71.34750000   -56.90210000    83.60000000
   71.26490000   -56.90530000    84.30000000
   71.22060000   -56.90690000    83.20000000
   71.17630000   -56.90850000    82.10000000
   71.13200000   -56.91010000    82.00000000
   71.08770000   -56.91170000    82.80000000
   71.04340000   -56.91330000    84.50000000
   70.99900000   -56.91490000    84.40000000
   70.92480000   -56.94270000    76.50000000
   70.89070000   -56.96190000    74.90000000
   70.85660000   -56.98110000    73.30000000
   70.82260000   -57.00030000    71.70000000
   70.78850000   -57.01950000    72.00000000
   70.75450000   -57.03870000    72.30000000
   70.72040000   -57.05790000    71.60000000
   70.68630000   -57.07710000    70.00000000
   70.65230000   -57.09630000    68.50000000
   70.61820000   -57.11550000    66.90000000
   70.58360000   -57.13490000    64.20000000
   70.54910000   -57.15420000    61.60000000
   70.51450000   -57.17360000    60.00000000
   70.48000000   -57.19300000    56.50000000
   70.44540000   -57.21240000    55.00000000
   70.41080000   -57.23180000    52.50000000
   70.37630000   -57.25110000    50.00000000
   70.34170000   -57.27050000    48.30000000
   70.30720000   -57.28990000    46.80000000
   70.27250000   -57.30930000    45.10000000
   70.23830000   -57.32830000    43.10000000
   70.20410000   -57.34740000    40.60000000
   70.16980000   -57.36640000    38.10000000
   70.13560000   -57.38540000    35.60000000
   70.10140000   -57.40440000    34.10000000
   70.06720000   -57.42340000    32.50000000
   70.03300000   -57.44240000    30.90000000
   69.99870000   -57.46150000    30.30000000
   69.96420000   -57.48060000    29.60000000
   69.92970000   -57.49970000    29.00000000
   69.89520000   -57.51880000    28.30000000
   69.86020000   -57.53710000    27.40000000
   69.82510000   -57.55520000    26.90000000
   69.79000000   -57.57330000    26.40000000
   69.75500000   -57.59140000    25.80000000
   69.71980000   -57.60950000    25.30000000
   69.68480000   -57.62760000    24.80000000
   69.64970000   -57.64560000    24.40000000
   69.61470000   -57.66360000    23.90000000
   69.57960000   -57.68160000    24.30000000
   69.54460000   -57.69960000    24.80000000
   69.50950000   -57.71760000    23.30000000
   69.47450000   -57.73560000    24.50000000
   69.43940000   -57.75360000    25.90000000
   69.41300000   -57.73500000    29.00000000
   69.41150000   -57.71100000    30.90000000
   69.41000000   -57.68700000    33.00000000
   69.40860000   -57.66290000    35.80000000
   69.40710000   -57.63890000    37.80000000
   69.40560000   -57.61490000    36.00000000
   69.40420000   -57.59050000    34.30000000
   69.40270000   -57.56590000    36.30000000
   69.40130000   -57.54140000    38.30000000
   69.39980000   -57.51690000    38.50000000
   69.39830000   -57.49230000    37.60000000
   69.39490000   -57.46690000    36.30000000
   69.39140000   -57.44150000    36.50000000
   69.38790000   -57.41640000    36.60000000
   69.38450000   -57.39120000    36.00000000
   69.38100000   -57.36610000    35.10000000
   69.37860000   -57.34110000    33.80000000
   69.37690000   -57.31630000    32.10000000
   69.37490000   -57.29110000    33.00000000
   69.37270000   -57.26570000    35.00000000
   69.37060000   -57.24030000    39.00000000
   69.36840000   -57.21490000    44.80000000
   69.36520000   -57.19020000    48.60000000
   69.36170000   -57.16570000    53.50000000
   69.35830000   -57.14110000    58.30000000
   69.35480000   -57.11680000    64.10000000
   69.35130000   -57.09250000    66.10000000
   69.34860000   -57.07570000    68.40000000
   69.24470000   -57.07230000    77.20000000
   69.19320000   -57.07220000    79.00000000
   69.14160000   -57.07200000    80.00000000
   69.09090000   -57.07220000    81.10000000
   69.04070000   -57.07250000    82.00000000
   68.99060000   -57.07280000    82.00000000
   68.94040000   -57.07310000    81.00000000
   68.89030000   -57.07330000    80.10000000
   68.84060000   -57.07360000    80.40000000
   68.79090000   -57.07390000    80.40000000
   68.74120000   -57.07420000    79.40000000
   68.69150000   -57.07450000    79.40000000
   68.64180000   -57.07480000    79.40000000
   68.59200000   -57.07510000    79.40000000
   68.54240000   -57.07540000    79.30000000
   68.49260000   -57.07570000    78.40000000
   68.44290000   -57.07600000    77.40000000
   68.39320000   -57.07630000    77.40000000
   68.34350000   -57.07660000    76.40000000
   68.30380000   -57.07680000    76.40000000
   68.25890000   -57.05920000    81.20000000
   68.22390000   -57.04150000    82.60000000
   68.15970000   -57.00500000    86.30000000
   68.12460000   -56.98710000    87.80000000
   68.08950000   -56.96930000    89.30000000
   68.05440000   -56.95150000    89.80000000
   68.01920000   -56.93370000    90.30000000
   67.98410000   -56.91590000    88.10000000
   67.94940000   -56.89830000    88.60000000
   67.91460000   -56.88060000    89.20000000
   67.87980000   -56.86290000    88.80000000
   67.84510000   -56.84520000    85.60000000
   67.81030000   -56.82750000    83.30000000
   67.77550000   -56.80980000    81.00000000
   67.74080000   -56.79210000    78.70000000
   67.70600000   -56.77440000    76.40000000
   67.67120000   -56.75670000    77.00000000
   67.63640000   -56.73900000    77.50000000
   67.60130000   -56.71980000    78.60000000
   67.56610000   -56.70020000    80.20000000
   67.53130000   -56.68080000    82.00000000
   67.49640000   -56.66130000    82.70000000
   67.46150000   -56.64190000    83.40000000
   67.42640000   -56.62230000    83.60000000
   67.38990000   -56.60190000    84.30000000
   67.36060000   -56.58570000    85.70000000
   67.34560000   -56.52760000    85.30000000
   67.34270000   -56.50100000    87.20000000
   67.34070000   -56.47450000    86.60000000
   67.33860000   -56.44810000    85.90000000
   67.33650000   -56.42160000    86.30000000
   67.33440000   -56.39520000    86.60000000
   67.33230000   -56.36870000    86.90000000
   67.32930000   -56.34250000    86.00000000
   67.32580000   -56.31660000    85.40000000
   67.32230000   -56.29070000    78.20000000
   67.31870000   -56.26480000    70.10000000
   67.31520000   -56.23880000    63.80000000
   67.31240000   -56.21330000    58.10000000
   67.30910000   -56.18270000    49.50000000
   67.30700000   -56.16230000    44.60000000
   67.30430000   -56.13680000    38.30000000
   67.30160000   -56.11130000    31.10000000
   67.29900000   -56.08580000    22.90000000
   67.33800000   -56.10800000    21.80000000
   67.38130000   -56.10300000    19.00000000
   67.42250000   -56.09820000    17.50000000
   67.46380000   -56.09340000    16.00000000
   67.50510000   -56.08870000    14.70000000
   67.54630000   -56.08390000    14.10000000
   67.58670000   -56.08000000    12.70000000
   67.62590000   -56.07680000    12.90000000
   67.66510000   -56.07360000    13.30000000
   67.70430000   -56.07040000    14.40000000
   67.74390000   -56.06720000    15.20000000
   67.78370000   -56.06390000    15.40000000
   67.82330000   -56.06060000    14.80000000
   67.86300000   -56.05740000    15.10000000
   67.90270000   -56.05410000    14.40000000
   67.94240000   -56.05090000    12.80000000
   67.98380000   -56.04750000    12.40000000
   68.02720000   -56.04410000     9.90000000
   68.07050000   -56.04070000     9.30000000
   68.11390000   -56.03730000     8.60000000
   68.15720000   -56.03400000     5.20000000
   68.20060000   -56.03060000     5.50000000
   68.24200000   -56.02740000     3.10000000
   68.28340000   -56.02420000    -0.50000000
   68.32480000   -56.02100000    -0.20000000
   68.36620000   -56.01780000    -2.80000000
   68.40340000   -56.01490000    -1.50000000
   68.46720000   -56.01050000    -2.00000000
   68.49630000   -56.00850000    -2.80000000
   68.57090000   -56.00290000    -0.90000000
   68.60860000   -56.00010000    -0.60000000
   68.64630000   -55.99730000    -0.40000000
   68.68410000   -55.99440000     0.10000000
   68.72180000   -55.99160000     0.20000000
   68.75990000   -55.98860000     1.90000000
   68.79920000   -55.98510000     3.10000000
   68.83860000   -55.98150000     4.50000000
   68.87800000   -55.97800000     5.70000000
   68.91730000   -55.97440000     6.90000000
   68.95670000   -55.97090000     7.20000000
   68.99610000   -55.96730000     6.60000000
   69.03540000   -55.96380000     6.90000000
   69.07480000   -55.96020000     7.20000000
   69.11420000   -55.95670000     6.50000000
   69.15230000   -55.95320000     5.90000000
   69.19050000   -55.94980000     6.20000000
   69.22870000   -55.94640000     7.40000000
   69.26660000   -55.94290000     7.40000000
   69.30450000   -55.93940000     7.70000000
   69.34230000   -55.93600000     8.90000000
   69.38020000   -55.93250000    10.20000000
   69.41810000   -55.92900000    10.40000000
   69.45590000   -55.92560000    11.70000000
   69.49380000   -55.92210000    12.90000000
   69.53160000   -55.91860000    14.20000000
   69.56950000   -55.91520000    15.40000000
   69.60440000   -55.91210000    14.10000000
   69.63920000   -55.90910000    14.30000000
   69.67410000   -55.90610000    15.40000000
   69.70900000   -55.90310000    17.60000000
   69.74390000   -55.90000000    19.80000000
   69.77910000   -55.89650000    20.50000000
   69.81450000   -55.89270000    20.80000000
   69.84990000   -55.88880000    22.10000000
   69.88540000   -55.88500000    23.30000000
   69.92080000   -55.88120000    24.60000000
   69.95620000   -55.87730000    24.90000000
   69.99160000   -55.87350000    25.30000000
   70.02750000   -55.86960000    26.00000000
   70.06340000   -55.86570000    27.30000000
   70.09930000   -55.86180000    28.50000000
   70.13510000   -55.85790000    26.90000000
   70.17050000   -55.85410000    28.90000000
   70.20830000   -55.85010000    28.30000000
   70.24610000   -55.84610000    28.80000000
   70.28390000   -55.84210000    29.90000000
   70.32170000   -55.83810000    32.10000000
   70.35650000   -55.83440000    30.30000000
   70.38840000   -55.83090000    32.50000000
   70.42030000   -55.82750000    32.80000000
   70.45180000   -55.82350000    33.50000000
   70.48410000   -55.81920000    33.80000000
   70.51630000   -55.81480000    34.10000000
   70.54860000   -55.81040000    35.50000000
   70.58080000   -55.80600000    36.80000000
   70.64530000   -55.80040000    38.10000000
   70.67750000   -55.79600000    37.50000000
   70.70970000   -55.79170000    38.00000000
   70.74190000   -55.78730000    36.50000000
   70.77400000   -55.78290000    35.80000000
   70.80620000   -55.77860000    34.30000000
   70.84140000   -55.77390000    33.60000000
   70.87650000   -55.76920000    33.00000000
   70.91170000   -55.76460000    33.50000000
   70.94690000   -55.75990000    35.80000000
   70.98200000   -55.75520000    36.10000000
   71.01720000   -55.75060000    35.50000000
   71.05240000   -55.74590000    35.00000000
   71.08750000   -55.74120000    34.50000000
   71.12270000   -55.73660000    33.00000000
   71.15760000   -55.73170000    31.30000000
   71.19140000   -55.72620000    31.80000000
   71.22510000   -55.72060000    32.30000000
   71.25980000   -55.71500000    33.50000000
   71.29450000   -55.70940000    33.00000000
   71.32910000   -55.70380000    30.80000000
   71.36380000   -55.69820000    28.30000000
   71.44740000   -55.68550000    29.30000000
   71.49040000   -55.67900000    27.80000000
   71.53350000   -55.67260000    26.50000000
   71.57650000   -55.66610000    25.30000000
   71.62080000   -55.66000000    24.30000000
   71.66540000   -55.65390000    23.80000000
   71.71000000   -55.64790000    22.50000000
   71.75600000   -55.64170000    21.40000000
   71.80190000   -55.63550000    19.10000000
   71.84790000   -55.62940000    17.80000000
   71.89370000   -55.62340000    16.30000000
   71.93990000   -55.61730000    15.80000000
   71.98650000   -55.61120000    14.40000000
   72.03310000   -55.60510000    12.10000000
   72.12630000   -55.59290000    10.30000000
   72.17290000   -55.58680000     8.90000000
   72.21950000   -55.58080000     7.50000000
   72.26610000   -55.57470000     8.10000000
   72.31160000   -55.56870000     8.40000000
   72.35530000   -55.56240000     7.30000000
   72.39860000   -55.55610000     7.80000000
   72.44190000   -55.54970000     8.40000000
   72.48510000   -55.54340000     8.90000000
   72.52840000   -55.53700000     6.60000000
   72.57170000   -55.53070000     5.30000000
   72.61500000   -55.52430000     6.80000000
   72.65830000   -55.51800000     8.20000000
   72.70160000   -55.51160000    11.60000000
   72.74490000   -55.50530000    20.40000000
   72.78810000   -55.49890000    25.60000000
   72.82930000   -55.49280000    26.30000000
   72.87040000   -55.48670000    28.80000000
   72.91160000   -55.48050000    29.30000000
   72.95280000   -55.47440000    29.80000000
   72.99390000   -55.46820000    31.20000000
   73.03510000   -55.46210000    34.50000000
   73.07620000   -55.45600000    35.00000000
   73.11740000   -55.44980000    35.60000000
   73.15860000   -55.44370000    30.50000000
   73.19150000   -55.43880000    26.30000000
   73.25490000   -55.42820000    29.30000000
   73.29950000   -55.42450000    29.60000000
   73.34410000   -55.42090000    28.90000000
   73.38870000   -55.41730000    27.40000000
   73.43330000   -55.41370000    27.80000000
   73.47790000   -55.41000000    28.00000000
   73.52250000   -55.40640000    29.30000000
   73.56700000   -55.40280000    30.50000000
   73.61160000   -55.39920000    31.80000000
   73.65620000   -55.39560000    32.00000000
   73.70080000   -55.39190000    31.40000000
   73.74610000   -55.38830000    29.50000000
   73.79130000   -55.38460000    29.80000000
   73.83660000   -55.38100000    24.50000000
   73.88180000   -55.37730000    17.40000000
   73.92710000   -55.37370000    11.20000000
   73.97230000   -55.37000000     9.70000000
   74.01760000   -55.36640000     9.90000000
   74.06280000   -55.36270000    10.30000000
   74.10810000   -55.35910000     6.80000000
   74.15330000   -55.35540000     6.20000000
   74.19860000   -55.35170000     6.50000000
   74.24380000   -55.34810000     7.80000000
   74.28910000   -55.34440000     6.20000000
   74.33430000   -55.34080000     3.60000000
   74.37960000   -55.33710000     4.90000000
   74.42220000   -55.34100000     7.00000000
   74.46490000   -55.34490000     9.40000000
   74.50760000   -55.34880000     9.20000000
   74.55020000   -55.35270000     5.10000000
   74.59290000   -55.35650000     4.80000000
   74.63550000   -55.36040000     5.40000000
   74.67820000   -55.36430000     7.90000000
   74.72080000   -55.36820000     6.60000000
   74.76350000   -55.37210000     6.20000000
   74.80620000   -55.37600000     6.00000000
   74.84880000   -55.37980000    24.30000000
   74.89150000   -55.38370000    23.90000000
   74.93440000   -55.38760000    23.80000000
   74.97730000   -55.39150000    23.40000000
   75.02020000   -55.39550000    22.30000000
   75.06480000   -55.39760000    22.50000000
   75.10940000   -55.39980000    25.10000000
   75.15360000   -55.40220000    25.60000000
   75.19690000   -55.40600000    28.10000000
   75.24010000   -55.40970000    30.60000000
   75.28340000   -55.41340000    32.10000000
   75.32640000   -55.41720000    31.60000000
   75.36940000   -55.42090000    34.10000000
   75.41250000   -55.42460000    36.60000000
   75.45550000   -55.42830000    38.10000000
   75.49860000   -55.43200000    39.80000000
   75.54160000   -55.43570000    39.50000000
   75.58460000   -55.43940000    35.30000000
   75.62770000   -55.44310000    29.40000000
   75.67070000   -55.44680000    24.40000000
   75.71380000   -55.45060000    24.10000000
   75.75680000   -55.45430000    24.80000000
   75.79990000   -55.45800000    28.10000000
   75.84290000   -55.46170000    29.80000000
   75.88590000   -55.46540000    32.30000000
   75.92900000   -55.46910000    34.80000000
   75.97510000   -55.47310000    38.00000000
   76.02120000   -55.47710000    38.50000000
   76.06730000   -55.48110000    39.10000000
   76.11340000   -55.48520000    41.50000000
   76.15020000   -55.48840000    41.30000000
   76.09530000   -55.48100000    48.00000000
   76.06910000   -55.47780000    48.30000000
   76.04290000   -55.47460000    45.80000000
   76.01670000   -55.47140000    44.10000000
   76.00360000   -55.46970000    43.30000000
   76.09310000   -55.47300000    41.10000000
   76.13370000   -55.47660000    40.80000000
   76.17620000   -55.48030000    42.50000000
   76.21910000   -55.48390000    43.10000000
   76.26180000   -55.48750000    45.50000000
   76.30450000   -55.49120000    47.00000000
   76.34720000   -55.49480000    48.50000000
   76.38990000   -55.49840000    50.10000000
   76.43250000   -55.50230000    51.50000000
   76.47500000   -55.50700000    51.00000000
   76.51620000   -55.51160000    51.50000000
   76.55750000   -55.51620000    53.00000000
   76.59870000   -55.52080000    54.50000000
   76.67010000   -55.52890000    55.60000000
   76.70280000   -55.53260000    55.30000000
   76.73550000   -55.53640000    55.00000000
   76.76820000   -55.54010000    55.60000000
   76.80100000   -55.54390000    55.30000000
   76.83370000   -55.54760000    54.10000000
   76.87220000   -55.55200000    55.30000000
   76.91220000   -55.55640000    55.00000000
   76.95290000   -55.55930000    55.30000000
   76.99360000   -55.56210000    56.00000000
   77.03430000   -55.56500000    56.60000000
   77.07550000   -55.56730000    59.60000000
   77.11670000   -55.56960000    59.50000000
   77.15780000   -55.57190000    59.30000000
   77.19900000   -55.57420000    59.10000000
   77.24010000   -55.57650000    59.00000000
   77.27960000   -55.57890000    59.30000000
   77.32040000   -55.58150000    60.00000000
   77.36120000   -55.58410000    57.00000000
   77.40200000   -55.58670000    54.00000000
   77.43830000   -55.58910000    48.00000000
   77.47460000   -55.59150000    40.30000000
   77.51100000   -55.59380000    34.50000000
   77.54730000   -55.59620000    27.80000000
   77.58370000   -55.59860000    28.50000000
   77.62000000   -55.60100000    28.30000000
   77.65640000   -55.60340000    29.00000000
   77.69080000   -55.60540000    26.80000000
   77.72260000   -55.60690000    26.60000000
   77.75430000   -55.60840000    26.40000000
   77.78600000   -55.60980000    24.40000000
   77.81770000   -55.61130000    22.40000000
   77.84880000   -55.61300000    21.80000000
   77.88100000   -55.61480000    21.60000000
   77.91320000   -55.61670000    23.30000000
   77.94540000   -55.61860000    32.50000000
   77.97760000   -55.62050000    40.80000000
   78.00980000   -55.62240000    44.50000000
   78.04210000   -55.62420000    45.30000000
   78.07430000   -55.62610000    47.00000000
   78.10650000   -55.62800000    48.60000000
   78.13870000   -55.62990000    47.50000000
   78.17090000   -55.63170000    44.50000000
   78.20310000   -55.63360000    43.50000000
   78.32880000   -55.64070000    40.60000000
   78.37270000   -55.64320000    38.60000000
   78.41650000   -55.64560000    34.60000000
   78.46030000   -55.64810000    31.60000000
   78.50420000   -55.65050000    28.60000000
   78.54850000   -55.65290000    29.40000000
   78.59360000   -55.65510000    28.30000000
   78.63870000   -55.65740000    25.30000000
   78.68390000   -55.65960000    25.10000000
   78.72900000   -55.66190000    24.00000000
   78.82400000   -55.66660000    22.80000000
   78.87150000   -55.66900000    22.60000000
   78.91900000   -55.67130000    19.60000000
   78.96650000   -55.67370000    19.40000000
   79.01410000   -55.67610000    22.00000000
   79.06160000   -55.67840000    24.60000000
   79.10910000   -55.68080000    27.30000000
   79.15660000   -55.68320000    29.90000000
   79.20410000   -55.68550000    30.60000000
   79.25160000   -55.68790000    30.40000000
   79.29920000   -55.69030000    30.30000000
   79.34750000   -55.69420000    30.50000000
   79.39590000   -55.69820000    30.30000000
   79.44420000   -55.70220000    29.80000000
   79.49260000   -55.70610000    30.40000000
   79.54090000   -55.71010000    32.00000000
   79.58930000   -55.71410000    32.60000000
   79.63760000   -55.71810000    32.30000000
   79.68600000   -55.72200000    31.90000000
   79.73430000   -55.72600000    30.60000000
   79.78040000   -55.72990000    27.30000000
   79.82640000   -55.73380000    26.10000000
   79.87240000   -55.73770000    24.80000000
   79.91950000   -55.74170000    24.40000000
   79.96660000   -55.74570000    23.30000000
   80.01400000   -55.75010000    23.10000000
   80.06150000   -55.75470000    22.80000000
   80.10900000   -55.75940000    22.30000000
   80.15650000   -55.76400000    21.90000000
   80.20400000   -55.76860000    22.50000000
   80.25140000   -55.77310000    21.50000000
   80.29810000   -55.77700000    22.10000000
   80.34490000   -55.78090000    22.80000000
   80.39170000   -55.78490000    23.30000000
   80.43850000   -55.78880000    23.90000000
   80.48530000   -55.79270000    23.50000000
   80.53210000   -55.79660000    24.10000000
   80.57890000   -55.80050000    26.60000000
   80.62570000   -55.80440000    29.10000000
   80.67250000   -55.80830000    31.60000000
   80.71930000   -55.81230000    34.00000000
   80.76470000   -55.81620000    33.60000000
   80.80920000   -55.82000000    36.10000000
   80.85370000   -55.82390000    37.60000000
   80.89820000   -55.82780000    34.50000000
   80.94270000   -55.83170000    32.30000000
   80.98720000   -55.83560000    30.10000000
   81.03180000   -55.83950000    25.10000000
   81.07640000   -55.84340000    19.30000000
   81.12090000   -55.84730000    12.40000000
   81.23340000   -55.90570000    10.30000000
   81.27930000   -55.91000000     3.30000000
   81.32520000   -55.91430000    -1.80000000
   81.37110000   -55.91860000    -5.00000000
   81.41700000   -55.92290000    -4.50000000
   81.46290000   -55.92710000    -4.80000000
   81.50870000   -55.93140000    -5.20000000
   81.55460000   -55.93570000    -1.80000000
   81.60020000   -55.94020000     2.50000000
   81.64480000   -55.94530000     6.80000000
   81.68940000   -55.95040000    10.90000000
   81.73350000   -55.95550000    14.80000000
   81.77760000   -55.96060000    12.40000000
   81.82170000   -55.96560000    12.10000000
   81.86580000   -55.97070000     5.10000000
   81.90990000   -55.97580000     0.90000000
   81.94520000   -55.97990000     0.60000000
   81.92140000   -56.02200000     8.00000000
   81.90190000   -56.04340000    13.70000000
   81.88250000   -56.06480000    23.00000000
   81.86300000   -56.08610000    34.30000000
   81.84350000   -56.10750000    44.80000000
   81.78070000   -56.17490000    60.60000000
   81.77020000   -56.18610000    57.80000000
   81.75970000   -56.19740000    49.50000000
   81.73880000   -56.21980000    26.90000000
   81.71780000   -56.24230000     9.20000000
   81.67590000   -56.28720000    -1.20000000
   81.65500000   -56.30970000    -3.10000000
   81.63400000   -56.33220000    -4.10000000
   81.61310000   -56.35460000    -4.10000000
   81.59210000   -56.37710000    -4.10000000
   81.57120000   -56.39960000    -6.00000000
   81.55020000   -56.42200000    -5.00000000
   81.52870000   -56.44550000    -5.70000000
   81.50760000   -56.46900000    -5.10000000
   81.48650000   -56.49250000    -6.10000000
   81.46540000   -56.51590000    -5.30000000
   81.44430000   -56.53940000    -2.50000000
   81.42310000   -56.56290000    -2.50000000
   81.40200000   -56.58640000    -1.80000000
   81.38090000   -56.60990000    -0.90000000
   81.35980000   -56.63340000     1.00000000
   81.31230000   -56.67330000    -0.90000000
   81.28950000   -56.69480000    -3.50000000
   81.24120000   -56.73560000    -3.00000000
   81.21850000   -56.75690000    -1.90000000
   81.19570000   -56.77820000     1.00000000
   81.17300000   -56.79950000     3.00000000
   81.15030000   -56.82080000     6.00000000
   81.12760000   -56.84210000     8.90000000
   81.10490000   -56.86340000    13.70000000
   81.08210000   -56.88470000    16.50000000
   81.20130000   -56.91020000    -1.00000000
   81.19600000   -56.91740000     2.10000000
   81.18070000   -56.93530000     5.00000000
   81.16480000   -56.95370000    10.10000000
   81.14900000   -56.97200000    15.10000000
   81.13310000   -56.99040000    19.10000000
   81.11730000   -57.00880000    24.10000000
   81.10460000   -57.02340000    27.60000000
   81.06440000   -57.05790000    39.50000000
   81.04560000   -57.07270000    41.80000000
   81.02680000   -57.08730000    44.50000000
   81.00800000   -57.10200000    46.00000000
   80.98920000   -57.11660000    46.60000000
   80.96980000   -57.13150000    46.80000000
   80.95150000   -57.14620000    47.30000000
   80.93410000   -57.16070000    49.80000000
   80.91660000   -57.17510000    52.50000000
   80.89910000   -57.18960000    53.00000000
   80.86420000   -57.21860000    52.30000000
   80.84680000   -57.23310000    52.00000000
   80.82930000   -57.24750000    51.80000000
   80.81190000   -57.26200000    53.30000000
   80.79440000   -57.27650000    55.00000000
   80.77690000   -57.29100000    58.50000000
   80.75900000   -57.30610000    57.80000000
   80.74090000   -57.32160000    56.50000000
   80.72280000   -57.33700000    56.10000000
   80.70480000   -57.35250000    55.00000000
   80.68670000   -57.36800000    54.50000000
   80.66870000   -57.38340000    56.10000000
   80.65060000   -57.39890000    54.80000000
   80.63250000   -57.41440000    53.50000000
   80.61450000   -57.42980000    52.30000000
   80.59640000   -57.44530000    50.00000000
   80.58370000   -57.45610000    49.30000000
   80.48350000   -57.54040000    58.30000000
   80.46820000   -57.55330000    57.30000000
   80.42200000   -57.58880000    57.50000000
   80.40060000   -57.60600000    58.80000000
   80.37920000   -57.62330000    61.30000000
   80.35780000   -57.64050000    64.50000000
   80.33640000   -57.65770000    65.00000000
   80.31500000   -57.67490000    65.50000000
   80.29050000   -57.69380000    64.40000000
   80.36110000   -57.74510000    53.30000000
   80.40790000   -57.74620000    53.10000000
   80.45480000   -57.74740000    53.00000000
   80.50160000   -57.74850000    52.00000000
   80.54850000   -57.74970000    52.00000000
   80.59530000   -57.75090000    51.80000000
   80.61870000   -57.75140000    51.80000000
   80.77990000   -57.77570000    54.50000000
   80.82920000   -57.77730000    54.30000000
   80.88010000   -57.77780000    55.50000000
   80.93110000   -57.77830000    54.60000000
   80.95660000   -57.77850000    54.50000000
   81.15180000   -57.78560000    49.80000000
   81.19840000   -57.78610000    48.80000000
   81.23320000   -57.73340000    57.80000000
   81.23480000   -57.71010000    57.80000000
   81.23640000   -57.68680000    58.00000000
   81.23810000   -57.66350000    57.00000000
   81.23970000   -57.64020000    56.10000000
   81.24130000   -57.61690000    56.10000000
   81.24410000   -57.59270000    57.30000000
   81.24710000   -57.56790000    58.50000000
   81.25010000   -57.54320000    59.50000000
   81.25320000   -57.51840000    60.60000000
   81.25620000   -57.49360000    59.80000000
   81.25920000   -57.46890000    61.80000000
   81.26220000   -57.44360000    63.00000000
   81.26520000   -57.41830000    62.30000000
   81.26820000   -57.39300000    61.50000000
   81.27120000   -57.36770000    59.00000000
   81.27420000   -57.34250000    56.30000000
   81.27660000   -57.32220000    58.00000000
   81.49680000   -57.23370000    23.60000000
   81.53730000   -57.22150000    22.80000000
   81.57790000   -57.20920000    24.80000000
   81.61830000   -57.19700000    30.40000000
   81.65820000   -57.18490000    33.80000000
   81.69810000   -57.17290000    34.80000000
   81.73800000   -57.16080000    35.80000000
   81.77710000   -57.14790000    32.30000000
   81.81570000   -57.13440000    25.80000000
   81.85420000   -57.12090000    21.30000000
   81.89280000   -57.10740000    13.20000000
   81.93130000   -57.09390000     6.80000000
   81.96990000   -57.08040000     5.10000000
   82.00840000   -57.06690000     2.50000000
   82.04700000   -57.05340000    -0.40000000
   82.08550000   -57.03990000    -3.00000000
   82.12460000   -57.02620000    -4.10000000
   82.16370000   -57.01250000    -7.70000000
   82.20480000   -56.99940000    -7.70000000
   82.28710000   -56.97320000    -8.40000000
   82.32830000   -56.96010000    -6.40000000
   82.36940000   -56.94690000    -5.30000000
   82.41010000   -56.93420000    -3.50000000
   82.45080000   -56.92160000    -1.50000000
   82.49140000   -56.90900000     0.60000000
   82.53200000   -56.89640000     2.50000000
   82.57260000   -56.88380000     4.50000000
   82.61360000   -56.87100000     5.90000000
   82.65500000   -56.85750000     7.50000000
   82.69650000   -56.84380000     7.70000000
   82.73790000   -56.83010000     8.70000000
   82.77940000   -56.81640000     8.90000000
   82.82080000   -56.80270000     9.20000000
   82.86720000   -56.79410000    12.20000000
   82.91350000   -56.78550000    12.90000000
   82.95990000   -56.77690000    15.40000000
   83.00630000   -56.76830000    18.90000000
   83.05260000   -56.75970000    21.50000000
   83.09900000   -56.75120000    22.30000000
   83.14580000   -56.74240000    22.40000000
   83.19270000   -56.73370000    22.30000000
   83.24080000   -56.72590000    24.40000000
   83.29060000   -56.71930000    23.10000000
   83.31560000   -56.71600000    21.50000000
   83.36480000   -56.75620000    24.30000000
   83.37370000   -56.77980000    23.10000000
   83.38090000   -56.80300000    20.60000000
   83.38790000   -56.82610000    19.60000000
   83.39260000   -56.84810000    17.60000000
   83.39590000   -56.87020000    16.80000000
   83.39920000   -56.89230000    17.80000000
   83.40180000   -56.91350000    16.90000000
   83.40400000   -56.93400000    15.30000000
   83.40630000   -56.95450000    16.40000000
   83.40850000   -56.97500000    17.50000000
   83.41070000   -56.99550000    19.50000000
   83.41300000   -57.01580000    20.80000000
   83.41520000   -57.03610000    20.90000000
   83.41750000   -57.05640000    22.00000000
   83.38630000   -57.09450000    14.70000000
   83.35340000   -57.09540000    13.90000000
   83.32060000   -57.09630000    14.80000000
   83.28770000   -57.09720000    15.70000000
   83.25630000   -57.10460000    17.60000000
   83.22550000   -57.11490000    15.90000000
   83.19470000   -57.12520000    14.10000000
   83.16390000   -57.13540000    13.30000000
   83.13300000   -57.14570000     9.60000000
   83.10220000   -57.15600000     6.90000000
   83.06570000   -57.15690000     0.40000000
   83.02910000   -57.15780000    -0.70000000
   82.99250000   -57.15860000    -2.60000000
   82.95590000   -57.15950000    -2.80000000
   82.88170000   -57.14740000    -6.00000000
   82.84580000   -57.13730000    -7.00000000
   82.81000000   -57.12720000    -6.20000000
   82.77410000   -57.11710000    -8.20000000
   82.73830000   -57.10700000    -9.20000000
   82.70510000   -57.09780000    -8.60000000
   82.67920000   -57.09060000    -9.80000000
   82.58300000   -57.05030000    -6.90000000
   82.55360000   -57.05110000    -7.00000000
   82.53310000   -57.05180000    -8.00000000
   82.47350000   -57.09870000   -13.90000000
   82.47260000   -57.12020000   -15.80000000
   82.47180000   -57.13700000   -16.10000000
   82.47090000   -57.15260000   -16.50000000
   82.47000000   -57.16830000   -16.80000000
   82.46910000   -57.18400000   -17.30000000
   82.46820000   -57.19980000   -17.50000000
   82.46740000   -57.21550000   -17.90000000
   82.46650000   -57.23120000   -18.30000000
   82.46590000   -57.24820000   -15.70000000
   82.46540000   -57.26560000   -15.30000000
   82.46280000   -57.28280000   -16.60000000
   82.45630000   -57.32190000   -14.90000000
   82.44850000   -57.34410000   -12.70000000
   82.43440000   -57.36690000    -8.10000000
   82.42020000   -57.38970000    -3.30000000
   82.40610000   -57.41240000     4.30000000
   82.39200000   -57.43520000    12.70000000
   82.37620000   -57.45830000    19.90000000
   82.35920000   -57.48170000    29.30000000
   82.35350000   -57.48930000    39.30000000
   82.35650000   -57.42340000    23.30000000
   82.35690000   -57.40000000    20.40000000
   82.35740000   -57.37670000    16.80000000
   82.35790000   -57.35330000    11.30000000
   82.35740000   -57.32880000     4.80000000
   82.35550000   -57.30260000     2.30000000
   82.35350000   -57.27640000    -2.30000000
   82.35160000   -57.25240000    -5.90000000
   82.34970000   -57.22890000    -9.60000000
   82.34830000   -57.20640000   -12.20000000
   82.34790000   -57.18530000   -13.30000000
   82.34750000   -57.16420000   -14.30000000
   82.34710000   -57.14310000   -13.40000000
   82.34670000   -57.12210000   -13.70000000
   82.34630000   -57.10100000   -13.80000000
   82.34590000   -57.07990000   -13.90000000
   82.34550000   -57.05840000   -13.90000000
   82.34510000   -57.03690000   -15.10000000
   82.34470000   -57.01550000   -13.30000000
   82.34430000   -56.99520000   -12.60000000
   82.34390000   -56.97540000   -11.90000000
   82.34350000   -56.95570000   -11.20000000
   82.34310000   -56.93250000    -9.20000000
   82.34280000   -56.91110000    -7.50000000
   82.24730000   -56.89210000    -9.70000000
   82.20960000   -56.88710000    -8.30000000
   82.17200000   -56.88200000    -7.90000000
   82.12940000   -56.87590000   -10.40000000
   82.09110000   -56.87030000    -9.90000000
   82.04780000   -56.81240000    -6.80000000
   82.02310000   -56.80780000    -6.40000000
   81.99850000   -56.80320000    -6.90000000
