   79.05280000     6.20320000   -85.40000000
   79.07610000     6.18750000   -76.90000000
   79.09940000     6.17180000   -68.30000000
   79.13430000     6.14820000   -58.30000000
   79.16930000     6.12460000   -49.60000000
   79.20420000     6.10100000   -42.10000000
   79.23910000     6.07750000   -38.10000000
   79.27410000     6.05390000   -39.00000000
   79.30900000     6.03030000   -40.80000000
   79.34400000     6.00670000   -44.00000000
   79.37890000     5.98310000   -48.10000000
   79.41390000     5.95960000   -50.10000000
   79.44880000     5.93600000   -54.30000000
   79.48070000     5.91350000   -63.80000000
   79.51220000     5.89110000   -66.90000000
   79.54620000     5.86970000   -70.10000000
   79.58020000     5.84840000   -70.90000000
   79.60290000     5.83420000   -76.50000000
   79.62560000     5.81990000   -84.50000000
   79.64830000     5.80570000   -92.50000000
   79.71630000     5.76300000  -103.50000000
   79.75030000     5.74170000  -104.30000000
   79.78440000     5.72030000  -105.10000000
   79.81840000     5.69900000   -96.50000000
   79.85240000     5.67760000   -89.00000000
   79.88640000     5.65630000   -93.40000000
   79.92040000     5.63490000   -98.90000000
   79.95520000     5.61370000   -96.80000000
   79.99280000     5.59290000   -98.80000000
   80.03030000     5.57210000  -100.80000000
   80.06790000     5.55130000  -102.80000000
   80.83480000     5.71280000   -70.50000000
   80.87690000     5.72120000   -62.30000000
   80.91900000     5.72960000   -57.80000000
   80.96120000     5.73800000   -49.60000000
   81.00330000     5.74640000   -44.00000000
   81.04540000     5.75480000   -29.90000000
   81.08760000     5.76320000   -18.30000000
   81.12970000     5.77160000   -16.00000000
   81.17180000     5.78000000    -9.20000000
   81.21400000     5.78840000     5.00000000
   81.25610000     5.79680000    25.90000000
   81.28300000     5.80750000    39.00000000
   81.30980000     5.81820000    45.80000000
   81.33670000     5.82890000    49.30000000
   81.36360000     5.83960000    45.50000000
   81.39040000     5.85030000    37.00000000
   81.41730000     5.86100000    28.60000000
   81.44420000     5.87170000    18.90000000
   81.47110000     5.88240000     4.70000000
   81.49790000     5.89310000    -4.00000000
   81.52480000     5.90380000   -15.90000000
   81.55970000     5.91780000   -38.50000000
   81.62360000     5.93170000   -66.00000000
   81.66720000     5.94120000   -73.30000000
   81.72200000     5.96420000   -76.90000000
   81.74950000     5.97570000   -77.10000000
   81.79060000     5.99290000   -82.20000000
   81.83170000     6.01020000   -93.10000000
   81.85910000     6.02170000  -101.60000000
   81.88650000     6.03320000  -110.00000000
   81.91390000     6.04460000  -117.30000000
   81.95500000     6.06190000  -118.80000000
   81.96330000     6.06530000  -118.90000000
   81.98770000     6.05310000  -105.40000000
   82.00850000     6.05880000   -98.40000000
   82.02920000     6.06450000   -93.70000000
   82.08420000     6.08200000   -71.90000000
   82.31740000     6.15490000   -71.50000000
   82.35830000     6.16700000   -68.20000000
   82.39920000     6.17910000   -63.60000000
   82.44010000     6.19130000   -61.50000000
   82.48100000     6.20340000   -63.00000000
   82.64690000     6.25790000   -60.30000000
   82.68860000     6.27240000   -59.30000000
   82.73040000     6.28690000   -59.50000000
   82.77220000     6.30130000   -58.80000000
   82.81390000     6.31580000   -55.50000000
   82.85570000     6.33030000   -54.50000000
   82.89740000     6.34470000   -53.60000000
   82.93920000     6.35920000   -55.10000000
   82.98090000     6.37370000   -55.50000000
   83.02270000     6.38810000   -56.80000000
   83.06440000     6.40260000   -56.00000000
   83.10620000     6.41710000   -54.00000000
   83.14790000     6.43150000   -51.80000000
   83.18970000     6.44600000   -51.00000000
   83.23150000     6.46050000   -48.80000000
   83.27320000     6.47500000   -46.80000000
   83.31420000     6.48950000   -47.80000000
   83.35420000     6.50410000   -47.00000000
   83.40440000     6.52610000   -42.30000000
   83.43210000     6.53740000   -42.50000000
   83.45430000     6.54640000   -41.50000000
   83.48570000     6.55930000   -47.00000000
   83.50710000     6.56810000   -44.80000000
   83.52840000     6.57690000   -45.00000000
   83.54980000     6.58560000   -46.50000000
   83.57120000     6.59440000   -47.80000000
   83.59260000     6.60320000   -49.10000000
   83.61400000     6.61200000   -49.30000000
   83.63740000     6.61880000   -42.00000000
   83.65200000     6.62240000   -42.10000000
   83.70540000     6.63880000   -42.50000000
   83.74360000     6.65050000   -42.60000000
   83.78180000     6.66220000   -43.00000000
   83.82000000     6.67380000   -43.10000000
   83.86050000     6.68730000   -40.50000000
   83.89940000     6.70090000   -49.30000000
   83.93580000     6.71480000   -49.60000000
   83.97210000     6.72880000   -51.00000000
   84.04490000     6.75660000   -50.50000000
   84.08130000     6.77050000   -50.80000000
   84.11770000     6.78450000   -50.00000000
   84.15410000     6.79840000   -49.00000000
   84.19040000     6.81230000   -48.10000000
   84.22680000     6.82620000   -47.30000000
   84.26320000     6.84020000   -50.00000000
   84.29960000     6.85410000   -51.30000000
   84.33600000     6.86800000   -51.60000000
   84.37240000     6.88200000   -52.00000000
   84.40870000     6.89590000   -52.30000000
   84.44500000     6.90980000   -50.80000000
   84.48110000     6.92370000   -48.60000000
   84.51720000     6.93750000   -49.00000000
   84.74950000     7.02610000   -49.80000000
   84.77030000     7.03350000   -47.50000000
   84.79120000     7.04090000   -47.60000000
   84.96170000     7.11010000   -44.00000000
   84.98940000     7.12220000   -45.50000000
   85.01720000     7.13430000   -45.80000000
   85.04470000     7.14740000   -45.10000000
   85.07230000     7.16050000   -45.50000000
   85.10130000     7.17240000   -43.30000000
   85.13030000     7.18440000   -43.50000000
   85.16190000     7.19700000   -44.80000000
   85.17770000     7.20340000   -42.60000000
   85.20150000     7.21290000   -39.30000000
   85.22520000     7.22240000   -37.10000000
   85.24890000     7.23190000   -36.10000000
   85.27250000     7.24180000   -35.50000000
   85.29610000     7.25180000   -35.80000000
   85.31970000     7.26180000   -36.00000000
   85.34320000     7.27170000   -36.10000000
   85.35270000     7.27570000   -36.30000000
   85.41430000     7.30140000   -26.90000000
   85.45280000     7.31740000   -28.40000000
   85.49130000     7.33350000   -30.00000000
   85.52980000     7.34950000   -32.80000000
   85.56830000     7.36550000   -36.60000000
   85.60680000     7.38160000   -40.50000000
   85.64630000     7.39830000   -38.00000000
   85.68640000     7.41550000   -38.50000000
   85.72660000     7.43270000   -37.60000000
   85.76680000     7.44980000   -36.80000000
   85.80700000     7.46700000   -36.00000000
   85.84710000     7.48420000   -33.00000000
   85.88730000     7.50140000   -29.80000000
   85.92750000     7.51850000   -27.80000000
   85.96760000     7.53570000   -29.40000000
   86.00780000     7.55290000   -32.30000000
   86.04800000     7.57010000   -32.60000000
   86.08820000     7.58730000   -35.30000000
   86.12830000     7.60440000   -37.00000000
   86.16850000     7.62160000   -37.30000000
   86.20870000     7.63880000   -35.50000000
   86.24880000     7.65600000   -35.80000000
   86.28900000     7.67310000   -36.30000000
   86.32920000     7.69030000   -36.60000000
   86.36940000     7.70750000   -35.80000000
   86.40950000     7.72470000   -36.30000000
   86.48190000     7.74940000   -33.00000000
   86.50340000     7.75760000   -32.50000000
   86.53560000     7.77000000   -28.00000000
   86.56770000     7.78240000   -24.80000000
   86.59990000     7.79480000   -20.30000000
   86.63210000     7.80720000   -15.90000000
   86.66420000     7.81960000   -11.60000000
   86.69640000     7.83200000    -7.20000000
   86.72860000     7.84440000    -5.10000000
   86.76070000     7.85680000    -4.20000000
   86.79290000     7.86920000    -4.50000000
   86.82510000     7.88150000    -3.50000000
   86.85720000     7.89390000    -4.00000000
   86.88940000     7.90630000    -5.40000000
   86.92160000     7.91870000    -5.70000000
   86.95370000     7.93110000    -6.00000000
   86.98590000     7.94350000    -6.20000000
   87.01810000     7.95590000    -6.70000000
   87.05020000     7.96830000    -8.10000000
   87.08240000     7.98070000    -8.40000000
   87.11460000     7.99310000    -9.90000000
   87.14670000     8.00550000   -12.40000000
   87.17890000     8.01780000   -13.90000000
   87.21110000     8.03020000   -15.40000000
   87.24280000     8.04360000   -19.30000000
   87.27360000     8.05890000   -20.90000000
   87.30450000     8.07420000   -22.40000000
   87.33530000     8.08950000   -22.80000000
   87.36620000     8.10480000   -26.80000000
   87.39790000     8.11980000   -24.30000000
   87.43170000     8.13390000   -25.80000000
   87.46560000     8.14800000   -28.40000000
   87.73470000     8.26230000   -27.80000000
   87.76800000     8.27680000   -28.30000000
   87.80130000     8.29130000   -28.60000000
   87.83460000     8.30590000   -28.90000000
   87.86790000     8.32040000   -29.30000000
   87.90120000     8.33490000   -29.80000000
   87.93450000     8.34940000   -28.90000000
   87.96780000     8.36390000   -25.80000000
   88.00110000     8.37850000   -23.80000000
   88.03340000     8.39120000   -25.30000000
   88.06540000     8.40320000   -23.30000000
   88.09730000     8.41520000   -22.40000000
   88.12920000     8.42720000   -19.30000000
   88.16120000     8.43930000   -14.90000000
   88.19310000     8.45130000   -12.80000000
   88.22510000     8.46330000   -10.80000000
   88.25700000     8.47530000    -9.90000000
   88.28900000     8.48740000    -7.90000000
   88.32090000     8.49940000    -5.80000000
   88.35290000     8.51140000    -2.50000000
   88.38480000     8.52350000    -1.60000000
   88.41670000     8.53550000    -0.90000000
   88.44870000     8.54750000     1.30000000
   88.48060000     8.55950000     2.10000000
   88.51260000     8.57160000     3.00000000
   88.54550000     8.58310000     7.10000000
   88.57860000     8.59450000     8.00000000
   88.61160000     8.60600000     9.90000000
   88.64470000     8.61750000    10.90000000
   88.67780000     8.62890000    11.80000000
   88.71080000     8.64040000    11.40000000
   88.72850000     8.64650000    11.30000000
   88.74520000     8.65230000    14.70000000
   88.77820000     8.66470000     8.40000000
   88.81060000     8.67700000     8.10000000
   88.84300000     8.68940000     8.90000000
   88.87540000     8.70170000    10.90000000
   88.90780000     8.71410000    11.80000000
   88.94020000     8.72640000    11.40000000
   88.97260000     8.73870000    11.20000000
   89.00500000     8.75110000    10.80000000
   89.03740000     8.76340000    10.40000000
   89.06980000     8.77570000    11.30000000
   89.14350000     8.80400000    15.20000000
   89.18130000     8.81840000    14.80000000
   89.21910000     8.83290000    14.40000000
   89.25680000     8.84740000    16.30000000
   89.29460000     8.86180000    17.10000000
   89.33230000     8.87630000    16.80000000
   89.37010000     8.89080000    13.90000000
   89.40780000     8.90520000    11.30000000
   89.44560000     8.91970000    11.90000000
   89.48330000     8.93420000    11.60000000
   89.52150000     8.94840000    15.70000000
   89.56050000     8.96190000    22.30000000
   89.59950000     8.97550000    26.80000000
   89.63850000     8.98910000    25.10000000
   89.67740000     9.00260000    23.60000000
   89.71640000     9.01620000    24.40000000
   89.79440000     9.04330000    26.00000000
   89.83340000     9.05690000    26.80000000
   89.87240000     9.07050000    27.60000000
   89.91130000     9.08400000    27.30000000
   89.95030000     9.09760000    26.80000000
   90.03380000     9.12260000    26.30000000
   90.07290000     9.14070000    27.00000000
   90.11210000     9.15880000    27.80000000
   90.16430000     9.18290000    31.80000000
   90.19040000     9.19500000    33.80000000
   90.22950000     9.21310000    34.50000000
   90.26860000     9.23120000    34.00000000
   90.30780000     9.24930000    31.00000000
   90.57650000     9.37390000    10.60000000
   90.61470000     9.39160000    10.10000000
   90.65300000     9.40930000     8.40000000
   90.69120000     9.42710000     1.80000000
   90.72950000     9.44480000    -3.50000000
   90.76770000     9.46250000    -6.80000000
   90.80570000     9.48010000    -9.70000000
   90.84370000     9.49770000   -10.20000000
   90.88170000     9.51520000   -11.90000000
   90.91970000     9.53280000   -14.80000000
   90.95860000     9.55090000   -13.40000000
   90.99770000     9.56900000   -16.30000000
   91.03670000     9.58720000   -22.80000000
   91.07580000     9.60540000   -25.60000000
   91.11490000     9.62350000   -30.90000000
   91.17960000     9.65450000   -33.50000000
   91.21030000     9.66930000   -37.50000000
   91.24100000     9.68410000   -39.10000000
   91.27170000     9.69900000   -42.00000000
   91.30240000     9.71380000   -43.60000000
   91.33310000     9.72860000   -44.00000000
   91.36380000     9.74340000   -44.50000000
   91.39450000     9.75820000   -43.70000000
   91.42520000     9.77310000   -40.60000000
   91.44560000     9.78290000   -37.50000000
   91.46610000     9.79280000   -28.30000000
   91.48660000     9.80270000   -17.90000000
   91.49480000     9.80670000   -15.80000000
   91.56280000     9.83820000    10.20000000
   91.59990000     9.85420000    12.60000000
   91.63680000     9.86990000     2.50000000
   91.67360000     9.88550000    11.60000000
   91.71050000     9.90120000    13.40000000
   91.73500000     9.91160000     3.60000000
   91.75960000     9.92210000   -10.90000000
   91.78420000     9.93250000   -25.30000000
   91.80870000     9.94290000   -15.10000000
   91.83330000     9.95340000    -2.50000000
   91.85780000     9.96380000     4.50000000
   91.86770000     9.96800000     5.60000000
   91.90890000     9.98010000     2.30000000
   91.93470000     9.98770000   -12.20000000
   91.96040000     9.99520000   -23.00000000
   91.98620000    10.00280000   -24.40000000
   92.01310000    10.00980000   -19.50000000
   92.05470000    10.01970000   -16.30000000
   92.09630000    10.02960000   -10.80000000
   92.13780000    10.03950000   -20.40000000
   92.17940000    10.04940000   -30.30000000
   92.20710000    10.05600000   -17.40000000
   92.23480000    10.06260000   -20.00000000
   92.26260000    10.06920000   -33.30000000
   92.29030000    10.07580000   -47.50000000
   92.31800000    10.08240000   -58.50000000
   92.34570000    10.08910000   -69.30000000
   92.37340000    10.09570000   -82.50000000
   92.40110000    10.10230000   -92.10000000
   92.42890000    10.10890000  -100.60000000
   92.45740000    10.11490000   -98.90000000
   92.48130000    10.11890000  -107.30000000
   92.35400000    10.20990000   -76.70000000
   92.33560000    10.22930000   -69.10000000
   92.31730000    10.24870000   -57.80000000
   92.29900000    10.26810000   -45.50000000
   92.28070000    10.28750000   -33.00000000
   92.26240000    10.30690000   -20.80000000
   92.24400000    10.32640000   -13.10000000
   92.22570000    10.34580000    -1.80000000
   92.20740000    10.36520000    18.80000000
   92.14330000    10.43320000    15.30000000
   92.11580000    10.46230000    22.60000000
   92.08830000    10.49140000    31.10000000
   92.06080000    10.52050000    24.30000000
   92.03330000    10.54970000    11.60000000
   92.00590000    10.57880000     8.30000000
   91.98740000    10.59840000    -1.00000000
   91.96890000    10.61800000    -8.70000000
   91.95040000    10.63750000    -5.90000000
   91.92260000    10.66690000    -3.30000000
   91.89490000    10.69630000   -10.20000000
   91.86720000    10.72570000   -17.00000000
   91.79870000    10.79810000    -7.70000000
   91.78390000    10.81380000     1.40000000
   91.75620000    10.84320000    -8.00000000
   91.72850000    10.87260000   -17.10000000
   91.70070000    10.90190000   -20.50000000
   91.67300000    10.93130000   -28.50000000
   91.65450000    10.95090000   -35.10000000
   91.63600000    10.97050000   -42.80000000
   91.61750000    10.99010000   -51.80000000
   91.59900000    11.00970000   -62.00000000
   91.58050000    11.02930000   -68.50000000
   91.56200000    11.04880000   -66.80000000
   91.53410000    11.07840000   -66.80000000
   91.50620000    11.10790000   -70.20000000
   91.47880000    11.13850000   -68.10000000
   91.45200000    11.17020000   -65.60000000
   91.42520000    11.20190000   -64.40000000
   91.39840000    11.23360000   -63.00000000
   91.37160000    11.26530000   -60.50000000
   91.30910000    11.33930000   -47.80000000
   91.29130000    11.36050000   -45.00000000
   91.26440000    11.39230000   -44.00000000
   91.23750000    11.42460000   -41.50000000
   91.21050000    11.45680000   -40.00000000
   91.18310000    11.48870000   -35.10000000
   91.15560000    11.52060000   -32.80000000
   91.12820000    11.55250000   -29.10000000
   91.10120000    11.58390000   -24.50000000
   91.07430000    11.61520000   -20.90000000
   91.04590000    11.64800000   -21.10000000
   91.01750000    11.68080000   -18.70000000
   90.98900000    11.71360000   -17.50000000
   90.96060000    11.74640000   -14.10000000
   90.93220000    11.77920000   -10.40000000
   90.90370000    11.81200000    -8.10000000
   90.87530000    11.84480000    -5.80000000
   90.84690000    11.87760000    -3.30000000
   90.81850000    11.91040000    -2.30000000
   90.79000000    11.94320000     1.40000000
   90.78050000    11.95410000     2.30000000
   90.75830000    11.97970000     4.50000000
   90.74370000    11.99650000     5.10000000
   90.72180000    12.02160000     6.50000000
   90.70000000    12.04670000     7.90000000
   90.67810000    12.07180000     8.20000000
   90.65630000    12.09690000     8.40000000
   90.63440000    12.12200000     8.70000000
   90.61260000    12.14710000     8.90000000
   90.58340000    12.18050000    10.10000000
   90.56880000    12.19730000     9.40000000
   90.54700000    12.22240000     7.30000000
   90.52510000    12.24750000     6.40000000
   90.48620000    12.29220000    15.90000000
   90.46680000    12.31460000    17.40000000
   90.43760000    12.34820000    17.30000000
   90.40850000    12.38170000    17.30000000
   90.37930000    12.41530000    15.90000000
   90.35010000    12.44890000    13.60000000
   90.32090000    12.48250000    12.30000000
   90.29180000    12.51600000    12.20000000
   90.26260000    12.54960000    13.30000000
   90.23340000    12.58320000    11.90000000
   90.14590000    12.68390000     7.00000000
   90.11680000    12.71750000     5.70000000
   90.08370000    12.75550000     4.20000000
   89.99940000    12.80040000     6.20000000
   89.98480000    12.81560000     8.40000000
   89.96360000    12.83710000    10.10000000
   89.94240000    12.85870000     9.20000000
   89.92120000    12.88020000     7.20000000
   89.90000000    12.90180000     5.20000000
   89.87870000    12.92340000     3.10000000
   89.85750000    12.94490000     1.00000000
   89.83630000    12.96650000    -1.00000000
   89.81510000    12.98800000    -1.80000000
   89.79390000    13.00960000    -4.00000000
   89.77260000    13.03110000    -3.50000000
   89.75060000    13.05330000    -7.40000000
   89.73180000    13.07200000    -6.90000000
   89.57220000    13.10940000   -12.10000000
   89.55230000    13.13060000   -11.70000000
   89.53820000    13.14440000   -11.90000000
   89.52580000    13.15660000   -14.70000000
   89.51340000    13.16870000   -15.20000000
   89.50680000    13.17520000   -13.10000000
   89.47410000    13.20980000   -17.00000000
   89.45190000    13.23340000   -16.80000000
   89.42960000    13.25700000   -20.10000000
   89.40730000    13.28060000   -21.10000000
   89.38510000    13.30420000   -19.60000000
   89.36280000    13.32780000   -17.00000000
   89.34050000    13.35140000   -18.00000000
   89.31860000    13.37520000   -16.60000000
   89.29690000    13.39910000   -16.40000000
   89.27520000    13.42300000   -13.90000000
   89.25360000    13.44700000   -13.80000000
   89.23190000    13.47090000    -9.90000000
   89.21030000    13.49480000   -10.90000000
   89.18860000    13.51880000   -10.80000000
   89.16700000    13.54270000   -10.60000000
   89.14530000    13.56660000   -10.40000000
   89.12360000    13.59060000    -8.90000000
   89.10200000    13.61450000    -7.60000000
   89.08030000    13.63840000    -7.40000000
   89.05870000    13.66240000    -4.90000000
   89.03700000    13.68630000    -4.70000000
   89.01540000    13.71020000    -3.30000000
   88.99370000    13.73420000    -4.30000000
   88.97200000    13.75810000    -5.30000000
   88.95100000    13.78240000    -2.30000000
   88.93170000    13.80740000    -3.30000000
   88.91230000    13.83250000    -4.40000000
   88.88250000    13.87390000    -5.90000000
   88.86690000    13.89600000    -5.60000000
   88.84350000    13.92910000    -5.80000000
   88.82010000    13.96220000    -7.20000000
   88.79420000    14.00010000   -10.90000000
   88.78090000    14.02020000   -10.70000000
   88.76100000    14.05040000   -13.20000000
   88.74110000    14.08060000   -16.80000000
   88.72120000    14.11080000   -18.00000000
   88.70130000    14.14100000   -19.30000000
   88.68140000    14.17120000   -20.60000000
   88.66150000    14.20140000   -21.90000000
   88.64150000    14.23160000   -22.00000000
   88.62160000    14.26180000   -22.10000000
   88.60170000    14.29200000   -22.30000000
   88.58180000    14.32220000   -22.30000000
   88.56190000    14.35240000   -22.40000000
   88.54200000    14.38250000   -21.40000000
   88.50220000    14.44290000   -18.40000000
   88.48230000    14.47310000   -18.50000000
   88.46230000    14.50330000   -19.80000000
   88.44240000    14.53350000   -18.80000000
   88.42250000    14.56370000   -17.80000000
   88.40260000    14.59390000   -16.80000000
   88.38210000    14.62380000   -17.40000000
   88.36110000    14.65340000   -17.50000000
   88.34000000    14.68310000   -18.80000000
   88.31900000    14.71270000   -20.30000000
   88.29790000    14.74230000   -22.60000000
   88.27690000    14.77200000   -24.00000000
   88.25580000    14.80160000   -24.10000000
   88.23480000    14.83120000   -24.30000000
   88.21370000    14.86090000   -24.40000000
   88.19270000    14.89050000   -24.50000000
   88.17160000    14.92010000   -24.60000000
   88.69750000    15.08960000   -23.30000000
   88.72830000    15.09330000   -23.30000000
   88.75900000    15.09710000   -23.50000000
   88.78980000    15.10080000   -23.80000000
   88.82060000    15.10450000   -23.80000000
   88.85140000    15.10820000   -24.00000000
   88.88250000    15.11200000   -18.00000000
   88.91690000    15.11710000   -18.30000000
   88.95140000    15.12220000   -19.80000000
   88.98590000    15.12740000   -21.10000000
   89.02040000    15.13250000   -20.10000000
   89.05490000    15.13760000   -19.30000000
   89.08930000    15.14270000   -18.30000000
   89.12380000    15.14780000   -17.30000000
   89.15770000    15.14890000   -17.30000000
   89.19150000    15.15000000   -14.90000000
   89.22530000    15.15120000   -12.70000000
   89.25910000    15.15230000   -11.60000000
   89.29300000    15.15340000    -9.30000000
   89.32680000    15.15450000    -8.10000000
   89.36060000    15.15560000    -8.20000000
   89.39440000    15.15670000    -7.10000000
   89.42830000    15.15780000    -5.90000000
   89.46210000    15.15890000    -4.80000000
   89.49590000    15.16000000    -4.90000000
   89.52970000    15.16110000    -3.60000000
   89.56360000    15.16220000    -2.50000000
   89.59740000    15.16330000    -2.50000000
   89.63120000    15.16440000    -1.40000000
   89.66500000    15.16550000    -0.40000000
   89.69890000    15.16660000    -0.40000000
   89.73170000    15.16890000    -3.50000000
   89.76370000    15.17230000    -2.50000000
   89.79570000    15.17560000    -1.50000000
   89.81920000    15.17810000    -1.60000000
   89.85960000    15.17690000    -0.50000000
   89.89160000    15.17570000     0.90000000
   89.92350000    15.17450000     2.10000000
   89.95540000    15.17330000     2.10000000
   89.98740000    15.17210000     2.30000000
   90.01930000    15.17090000     3.50000000
   90.05130000    15.16970000     2.30000000
   90.08320000    15.16850000     2.30000000
   90.11520000    15.16730000     2.50000000
   90.14710000    15.16610000     1.30000000
   90.17900000    15.16490000     2.50000000
   90.21100000    15.16370000     3.70000000
   90.24290000    15.16250000     5.10000000
   90.27490000    15.16130000     5.10000000
   90.30680000    15.16010000     5.20000000
   90.33870000    15.15890000     6.40000000
   90.37070000    15.15770000     7.70000000
   90.40260000    15.15650000     8.90000000
   90.43460000    15.15530000    10.10000000
   90.46650000    15.15410000    10.20000000
   90.49840000    15.15290000    11.40000000
   90.53040000    15.15170000    13.80000000
   90.64940000    15.18260000     9.90000000
   90.68620000    15.18070000     8.70000000
   90.72300000    15.17890000    10.10000000
   90.75980000    15.17700000     8.90000000
   90.79660000    15.17510000     9.10000000
   90.83340000    15.17330000     9.20000000
   90.87060000    15.17070000     9.90000000
   90.90850000    15.16700000     9.90000000
   90.94630000    15.16320000     8.90000000
   90.98410000    15.15950000     9.20000000
   91.02190000    15.15580000     9.30000000
   91.05980000    15.15210000     9.40000000
   91.09760000    15.14830000    10.90000000
   91.13540000    15.14460000     9.80000000
   91.17330000    15.14090000     8.70000000
   91.21110000    15.13720000     6.60000000
   91.24890000    15.13350000     5.60000000
   91.28680000    15.12970000     3.30000000
   91.32470000    15.12600000     1.80000000
   91.36350000    15.12240000     1.80000000
   91.40230000    15.11870000     0.90000000
   91.44110000    15.11510000    -0.20000000
   91.48000000    15.11140000    -0.20000000
   91.51880000    15.10770000     2.50000000
   91.55760000    15.10410000     3.80000000
   91.59630000    15.10040000     2.30000000
   91.63340000    15.09680000     3.70000000
   91.67060000    15.09320000     5.10000000
   91.70770000    15.08950000     5.30000000
   91.74480000    15.08590000     6.60000000
   91.78200000    15.08230000     5.60000000
   91.81910000    15.07870000     4.60000000
   91.85620000    15.07500000     3.50000000
   91.89330000    15.07140000     2.50000000
   91.93050000    15.06780000     1.40000000
   91.96780000    15.06440000     0.90000000
   92.00520000    15.06130000     1.10000000
   92.04270000    15.05810000     0.10000000
   92.08010000    15.05490000    -1.00000000
   92.11750000    15.05170000    -3.30000000
   92.15500000    15.04850000    -5.50000000
   92.19230000    15.04540000    -7.90000000
   92.22960000    15.04220000   -10.10000000
   92.26690000    15.03910000   -12.40000000
   92.30430000    15.03590000   -15.80000000
   92.34160000    15.03270000   -19.10000000
   92.37890000    15.02960000   -22.50000000
   92.41630000    15.02640000   -27.10000000
   92.46600000    15.02220000   -34.00000000
   92.49090000    15.02010000   -37.50000000
   92.52820000    15.01690000   -40.80000000
   92.56560000    15.01380000   -46.60000000
   92.60290000    15.01060000   -52.50000000
   92.64050000    15.00720000   -55.00000000
   92.67820000    15.00370000   -60.80000000
   92.71600000    15.00020000   -66.60000000
   92.75370000    14.99670000   -72.40000000
   92.79150000    14.99310000   -77.00000000
   92.82920000    14.98960000   -81.50000000
   92.85440000    14.98730000   -83.80000000
   92.90470000    14.98260000   -90.30000000
   92.94250000    14.97900000   -94.90000000
   92.98020000    14.97550000   -98.30000000
   93.01800000    14.97200000  -100.50000000
   93.05570000    14.96850000  -103.90000000
   93.08090000    14.96610000  -101.40000000
   93.10600000    14.96380000   -95.40000000
   93.13120000    14.96140000   -81.10000000
   93.15630000    14.96130000   -64.80000000
   93.18140000    14.96120000   -50.50000000
   93.20640000    14.96100000   -39.80000000
   93.23150000    14.96090000   -30.30000000
   93.25660000    14.96080000   -22.10000000
   93.28160000    14.96060000   -16.10000000
   93.31880000    14.96870000   -16.00000000
   93.35810000    14.97480000   -21.10000000
   93.39740000    14.98090000   -24.90000000
   93.43670000    14.98700000   -29.90000000
   93.47600000    14.99300000   -32.50000000
   93.51530000    14.99910000   -28.10000000
   93.55540000    14.99870000   -32.60000000
   93.59540000    14.99820000   -36.10000000
   93.63550000    14.99780000   -41.00000000
   93.66230000    14.99750000   -42.00000000
   93.67560000    14.99740000   -39.80000000
   93.71570000    14.99690000   -38.50000000
   93.75580000    14.99650000   -36.10000000
   93.79590000    14.99610000   -33.80000000
   93.82260000    14.99580000   -36.00000000
   93.86580000    14.99530000   -32.80000000
   93.89570000    14.99500000   -28.10000000
   93.92560000    14.99470000   -25.80000000
   93.97040000    14.99430000   -22.30000000
   94.01520000    14.99390000   -16.30000000
   94.04800000    14.99350000     2.80000000
   94.08290000    14.99300000    14.10000000
   94.11040000    14.99250000    23.40000000
   94.13800000    14.99210000    28.30000000
   94.16550000    14.99170000    29.40000000
   94.22060000    14.99080000    28.30000000
   94.24810000    14.99040000    18.80000000
   94.26650000    14.99010000    11.80000000
   94.28480000    14.98980000     5.90000000
   94.34470000    14.98920000    -5.30000000
   94.37460000    14.98890000    -8.90000000
   94.40450000    14.98860000   -11.20000000
   94.44940000    14.98820000   -14.70000000
   94.47040000    14.98800000   -15.90000000
   94.50630000    14.98740000   -23.50000000
   94.52480000    14.98690000   -32.10000000
   94.56150000    14.98620000   -28.80000000
   94.57830000    14.98540000   -27.50000000
   94.60350000    14.98420000   -25.10000000
   94.62860000    14.98300000   -22.80000000
   94.65380000    14.98180000   -19.10000000
   94.67890000    14.98060000   -17.80000000
   94.71750000    14.97880000   -14.30000000
   94.77740000    14.97710000    -6.60000000
   94.81980000    14.97590000    -0.60000000
   94.86210000    14.97470000     3.10000000
   94.90450000    14.97350000     6.80000000
   94.94690000    14.97230000     9.20000000
   94.98930000    14.97110000    11.60000000
   95.03160000    14.96990000    12.90000000
   95.05640000    14.96880000     8.10000000
   95.08120000    14.96760000     8.20000000
   95.10590000    14.96640000     7.10000000
   95.13070000    14.96520000     5.90000000
   95.18020000    14.96280000     4.90000000
   95.20490000    14.96160000     2.50000000
   95.25680000    14.96150000     8.00000000
   95.28340000    14.96210000     5.60000000
   95.32340000    14.96300000     3.10000000
   95.36330000    14.96390000     3.00000000
   95.40320000    14.96490000     3.00000000
   95.44320000    14.96580000     1.80000000
   95.49110000    14.96690000     1.80000000
   95.52930000    14.96830000     2.00000000
   95.54670000    14.96890000     0.70000000
   95.56400000    14.96950000     0.70000000
   95.59010000    14.97050000     0.70000000
   95.61610000    14.97140000    -0.70000000
   95.64210000    14.97230000    -4.20000000
   95.66820000    14.97330000    -6.70000000
   95.67690000    14.97360000    -7.80000000
   95.74260000    14.97510000   -10.40000000
   95.78260000    14.97610000   -12.90000000
   95.82250000    14.97700000   -11.80000000
   95.86250000    14.97790000   -11.80000000
   95.90250000    14.97890000   -13.10000000
   95.95050000    14.98000000   -14.30000000
   96.01250000    14.98290000   -14.30000000
   96.03030000    14.98350000   -14.30000000
   96.05700000    14.98450000   -14.40000000
   96.08360000    14.98530000   -14.40000000
   96.11030000    14.98610000   -13.40000000
   96.13690000    14.98690000   -12.20000000
   96.16350000    14.98770000   -11.10000000
   96.19010000    14.98850000   -11.10000000
   96.21680000    14.98930000   -11.10000000
   96.24340000    14.99010000    -9.90000000
   96.27000000    14.99090000    -8.70000000
   96.29660000    14.99170000    -8.90000000
   96.32330000    14.99240000    -8.90000000
   96.35410000    14.92850000    -9.40000000
   96.36950000    14.89650000    -9.20000000
   96.38500000    14.86450000    -8.90000000
   96.40040000    14.83260000    -8.70000000
   96.41580000    14.80060000    -8.40000000
   96.43130000    14.76860000    -5.90000000
   96.44150000    14.74730000    -4.90000000
   96.44900000    14.73220000    -3.10000000
   96.45640000    14.71710000    -2.50000000
   96.46750000    14.69440000    -1.40000000
   96.47730000    14.67020000    -4.60000000
   96.48670000    14.64540000    -5.90000000
   96.49600000    14.62060000    -6.00000000
   96.50530000    14.59580000    -6.10000000
   96.51470000    14.57100000    -5.00000000
   96.52400000    14.54630000    -3.80000000
   96.53330000    14.52150000    -5.20000000
   96.54260000    14.49670000    -5.30000000
   96.55200000    14.47190000    -5.40000000
   96.56130000    14.44720000    -5.50000000
   96.57060000    14.42240000    -5.60000000
   96.58000000    14.39760000    -8.10000000
   96.59410000    14.36240000    -7.90000000
   96.60820000    14.32720000    -9.90000000
   96.62230000    14.29210000   -10.80000000
   96.63640000    14.25690000   -12.90000000
   96.65050000    14.22170000   -14.90000000
   96.66460000    14.18650000   -13.40000000
   96.67870000    14.15140000   -11.90000000
   96.69270000    14.11880000   -10.40000000
   96.70680000    14.08700000   -11.40000000
   96.72090000    14.05510000   -12.40000000
   96.73490000    14.02330000   -14.70000000
   96.74900000    13.99140000   -15.80000000
   96.76110000    13.96380000   -17.80000000
   96.77320000    13.93620000   -17.80000000
   96.78490000    13.90600000   -18.50000000
   96.79650000    13.87540000   -18.40000000
   96.80810000    13.84480000   -18.30000000
   96.81980000    13.81420000   -17.00000000
   96.83140000    13.78350000   -16.90000000
   96.84300000    13.75290000   -16.80000000
   96.85460000    13.72230000   -13.30000000
   96.86620000    13.69170000    -7.30000000
   96.87790000    13.66110000    -2.50000000
   96.88950000    13.63050000     1.20000000
   96.90110000    13.59990000     0.20000000
   96.91270000    13.56930000    -1.00000000
   96.92430000    13.53870000    -3.30000000
   96.93600000    13.50810000    -5.70000000
   96.93980000    13.49790000    -5.30000000
   96.89400000    13.46160000   -14.70000000
   96.86650000    13.43980000   -13.80000000
   96.83900000    13.41800000   -14.10000000
   96.81160000    13.39620000    -9.70000000
   96.78410000    13.37440000    -5.30000000
   96.75660000    13.35260000    -3.10000000
   96.72910000    13.33080000    -1.00000000
   96.70160000    13.30900000    -0.20000000
   96.67410000    13.28720000     0.70000000
   96.64210000    13.26170000    -0.20000000
   96.61010000    13.23620000     2.10000000
   96.57810000    13.21070000     2.00000000
   96.54840000    13.18590000     5.90000000
   96.51880000    13.16110000     5.70000000
   96.48920000    13.13630000     1.80000000
   96.45960000    13.11150000    -6.70000000
   96.43010000    13.08680000   -16.30000000
   96.40050000    13.06200000   -17.80000000
   96.37090000    13.03720000   -16.80000000
   96.34130000    13.01240000   -18.10000000
   96.31180000    12.98760000   -20.80000000
   96.28220000    12.96290000   -29.30000000
   96.25260000    12.93810000   -36.50000000
   96.22300000    12.91330000   -40.30000000
   96.19340000    12.88850000   -40.50000000
   96.16390000    12.86370000   -39.50000000
   96.13430000    12.83900000   -35.00000000
   96.10470000    12.81420000   -29.30000000
   96.07510000    12.78940000   -27.10000000
   96.00990000    12.72440000   -23.80000000
   95.97190000    12.69250000   -18.90000000
   95.94650000    12.67120000   -16.90000000
   95.91480000    12.64470000   -18.30000000
   95.88310000    12.61810000   -18.40000000
   95.85150000    12.59160000   -21.00000000
   95.81980000    12.56500000   -21.10000000
   95.78810000    12.53840000   -21.30000000
   95.75640000    12.51190000   -19.10000000
   95.72470000    12.48530000   -18.10000000
   95.69300000    12.45880000   -18.30000000
   95.66140000    12.43220000   -14.90000000
   95.62970000    12.40570000   -12.80000000
   95.59800000    12.37910000    -9.40000000
   95.56630000    12.35250000    -6.10000000
   95.53460000    12.32600000    -2.60000000
   95.50290000    12.29940000    -0.50000000
   95.47130000    12.27290000     1.80000000
   95.43960000    12.24630000     4.00000000
   95.40790000    12.21980000     5.00000000
   95.37620000    12.19320000     4.80000000
   95.34450000    12.16660000     5.80000000
   95.31280000    12.14010000     4.40000000
   95.28080000    12.11390000   -10.70000000
   95.24760000    12.08950000   -18.00000000
   95.21430000    12.06500000   -26.60000000
   95.18110000    12.04060000   -34.00000000
   95.14780000    12.01610000   -42.50000000
   95.12780000    12.00150000   -44.50000000
   95.12500000    11.90440000   -34.10000000
   95.12380000    11.86400000   -31.50000000
   95.12260000    11.82360000   -26.50000000
   95.12140000    11.78320000   -23.80000000
   95.12030000    11.74270000   -24.80000000
   95.11910000    11.70230000   -23.50000000
   95.11850000    11.66150000   -23.30000000
   95.11790000    11.62070000   -20.50000000
   95.11740000    11.57990000   -17.90000000
   95.11680000    11.53910000   -14.20000000
   95.11620000    11.49820000    -9.20000000
   95.11570000    11.46560000    -6.90000000
   95.11500000    11.43800000    -2.30000000
   95.11440000    11.41500000     2.10000000
   95.11380000    11.39200000     5.30000000
   95.11370000    11.38740000     6.70000000
   95.11270000    11.31270000    13.90000000
   95.11210000    11.27120000    17.80000000
   95.11150000    11.22970000    19.10000000
   95.11090000    11.21730000    20.80000000
   95.04310000    11.19850000    19.60000000
   95.00250000    11.18330000    10.80000000
   94.96200000    11.16820000     4.20000000
   94.92140000    11.15300000     3.50000000
   94.88090000    11.13790000     2.80000000
   94.84030000    11.12270000     2.10000000
   94.79980000    11.10760000     1.40000000
   94.75930000    11.09240000     1.90000000
   94.71920000    11.07660000     6.40000000
   94.68080000    11.05790000     7.00000000
   94.64250000    11.03920000     7.60000000
   94.60420000    11.02050000     7.10000000
   94.56590000    11.00180000     6.50000000
   94.52750000    10.98310000     6.00000000
   94.48920000    10.96430000     4.20000000
   94.45090000    10.94560000     3.60000000
   94.42160000    10.93070000     8.00000000
   94.39230000    10.91580000     8.40000000
   94.37280000    10.90580000     8.70000000
   94.35330000    10.89580000     5.60000000
   94.33380000    10.88590000     2.30000000
   94.30450000    10.87090000     0.50000000
   94.27520000    10.85600000     0.90000000
   94.24600000    10.84110000     1.40000000
   94.21670000    10.82610000     0.70000000
   94.18740000    10.81120000     3.60000000
   94.15810000    10.79620000     4.20000000
   94.12890000    10.78130000     3.50000000
   94.09960000    10.76630000    -2.10000000
   94.07030000    10.75140000    -6.40000000
   94.04110000    10.73650000    -7.10000000
   94.01090000    10.72240000    -9.40000000
   93.98080000    10.70840000    -7.70000000
   93.95060000    10.69430000    -6.10000000
   93.92050000    10.68030000   -10.40000000
   93.90040000    10.67090000   -12.40000000
   93.88030000    10.66160000   -12.10000000
   93.81910000    10.60820000    -0.50000000
   93.79510000    10.59730000    -6.00000000
   93.75870000    10.58120000   -19.40000000
   93.72220000    10.56520000   -24.80000000
   93.69780000    10.55450000   -30.40000000
   93.67350000    10.54380000   -31.20000000
   93.64910000    10.53310000   -26.10000000
   93.62480000    10.52240000    -5.80000000
   93.60040000    10.51170000    19.60000000
   93.57600000    10.50100000    47.10000000
   93.55170000    10.49040000    38.00000000
   93.52730000    10.47970000    24.10000000
   93.50110000    10.46900000     1.90000000
   93.47490000    10.45840000   -12.10000000
   93.44870000    10.44780000   -24.80000000
   93.42260000    10.43720000   -38.60000000
   93.39640000    10.42650000   -62.00000000
   93.37020000    10.41590000   -78.20000000
   93.34400000    10.40530000   -99.20000000
   93.31780000    10.39470000  -124.90000000
   93.28370000    10.38090000  -138.70000000
   93.26540000    10.37340000  -152.90000000
   93.23920000    10.36280000  -149.10000000
   93.21300000    10.35220000  -145.20000000
   93.18680000    10.34160000  -141.30000000
   93.16060000    10.33090000  -137.40000000
   93.13440000    10.32030000  -138.30000000
   93.10820000    10.30970000  -156.90000000
   93.08200000    10.29910000  -168.40000000
   93.05580000    10.28840000  -168.10000000
   93.02960000    10.27780000  -168.90000000
   93.00340000    10.26720000  -169.80000000
   92.97720000    10.25660000  -168.20000000
   92.95100000    10.24600000  -165.40000000
   92.92620000    10.23580000  -158.10000000
   92.90140000    10.22570000  -151.90000000
   92.87660000    10.21560000  -144.40000000
   92.85230000    10.20570000  -122.70000000
   92.82800000    10.19580000  -101.10000000
   92.80370000    10.18590000   -73.50000000
   92.76820000    10.17130000   -59.30000000
   92.73340000    10.15500000   -58.80000000
   92.69710000    10.13820000   -57.60000000
   92.66070000    10.12140000   -61.80000000
   92.63650000    10.11010000   -71.10000000
   92.61220000    10.09890000   -82.60000000
   92.58800000    10.08770000   -96.40000000
   92.56370000    10.07640000  -104.40000000
   92.53950000    10.06520000  -105.20000000
   92.51530000    10.05400000  -103.70000000
   92.47890000    10.03710000   -96.10000000
   92.44250000    10.02030000   -93.20000000
   92.40620000    10.00350000   -87.90000000
   92.36980000     9.98660000   -76.70000000
   92.33340000     9.96980000   -64.40000000
   92.31200000     9.96260000   -54.50000000
   92.42150000     9.89380000   -93.30000000
   92.44520000     9.87880000   -94.00000000
   92.46900000     9.86390000   -94.70000000
   92.50470000     9.84140000   -95.20000000
   92.54040000     9.81900000   -96.90000000
   92.57610000     9.79660000   -95.10000000
   92.61180000     9.77410000   -88.50000000
   92.63560000     9.75920000   -78.60000000
   92.65930000     9.74420000   -66.30000000
   92.68310000     9.72930000   -59.80000000
   92.71880000     9.70680000   -52.00000000
   92.75450000     9.68440000   -38.30000000
   92.79020000     9.66200000   -33.00000000
   92.82630000     9.63970000   -34.10000000
   92.86300000     9.61760000   -37.00000000
   92.89960000     9.59550000   -42.30000000
   92.93620000     9.57340000   -41.60000000
   92.97280000     9.55130000   -41.00000000
   92.99720000     9.53650000   -65.50000000
   93.02160000     9.52180000  -105.30000000
   93.04600000     9.50710000  -133.30000000
   93.09480000     9.47760000  -154.40000000
   93.11920000     9.46280000  -156.40000000
   93.15580000     9.44070000  -156.90000000
   93.19240000     9.41860000  -156.20000000
   93.22900000     9.39650000  -155.60000000
   93.26560000     9.37440000  -151.40000000
   93.30130000     9.35160000  -150.60000000
   93.33530000     9.32760000  -134.40000000
   93.34660000     9.31960000  -128.30000000
   93.38680000     9.28340000  -120.80000000
   93.42240000     9.25820000  -110.60000000
   93.44620000     9.24140000   -98.30000000
   93.46990000     9.22460000   -84.80000000
   93.49370000     9.20780000   -70.10000000
   93.52940000     9.18260000   -36.10000000
   93.55780000     9.16460000     1.50000000
   93.57670000     9.15260000    -5.40000000
   93.59560000     9.14060000   -14.40000000
   93.61460000     9.12860000   -28.30000000
   93.63350000     9.11660000   -45.80000000
   93.65240000     9.10460000   -57.30000000
   93.67140000     9.09260000   -68.70000000
   93.69030000     9.08070000   -81.50000000
   93.70920000     9.06870000   -83.50000000
   93.72820000     9.05670000   -78.50000000
   93.74710000     9.04470000   -68.60000000
   93.76600000     9.03270000   -52.80000000
   93.78500000     9.02070000   -37.10000000
   93.80390000     9.00870000   -19.00000000
   93.82280000     8.99670000    -0.90000000
   93.84180000     8.98470000    10.20000000
   93.87020000     8.96670000    18.40000000
   93.89860000     8.94880000    11.90000000
   93.91750000     8.93680000     6.20000000
   93.93640000     8.92480000    -4.30000000
   93.95540000     8.91280000   -13.40000000
   93.97430000     8.90080000   -21.30000000
   93.99320000     8.88880000   -26.90000000
   94.01350000     8.87700000   -23.30000000
   94.04500000     8.85960000   -26.40000000
   94.07660000     8.84210000   -28.30000000
   94.10820000     8.82470000   -29.00000000
   94.13970000     8.80720000   -27.30000000
   94.15240000     8.80020000   -24.80000000
   94.21240000     8.80310000   -15.80000000
   94.23650000     8.79100000    -9.40000000
   94.26050000     8.77890000    -0.90000000
   94.28450000     8.76670000     7.90000000
   94.30860000     8.75460000    16.50000000
   94.33260000     8.74250000    21.50000000
   94.35670000     8.73040000    27.80000000
   94.38070000     8.71830000    32.80000000
   94.40480000     8.70620000    35.50000000
   94.42880000     8.69410000    37.00000000
   94.45290000     8.68190000    41.00000000
   94.47690000     8.66980000    48.30000000
   94.50090000     8.65770000    51.00000000
   94.52500000     8.64560000    51.50000000
   94.54900000     8.63350000    49.30000000
   94.57310000     8.62140000    47.30000000
   94.59710000     8.60930000    39.30000000
   94.62120000     8.59710000    33.80000000
   94.64520000     8.58500000    37.60000000
   94.66930000     8.57290000    45.00000000
   94.69330000     8.56080000    37.00000000
   94.71740000     8.54870000    25.50000000
   94.74140000     8.53660000    24.80000000
   94.76540000     8.52450000    33.30000000
   94.78950000     8.51230000    52.50000000
   94.81350000     8.50020000    63.50000000
   94.83760000     8.48810000    67.50000000
   94.86160000     8.47600000    40.50000000
   94.88570000     8.46390000    14.80000000
   94.90970000     8.45180000     4.50000000
   94.93380000     8.43970000     1.10000000
   94.95780000     8.42750000    -5.80000000
   94.98190000     8.41540000   -11.40000000
   95.00720000     8.40380000   -12.40000000
   95.03290000     8.39220000   -15.80000000
   95.07150000     8.37490000   -17.60000000
   95.11000000     8.35770000   -17.30000000
   95.14860000     8.34040000   -19.10000000
   95.18710000     8.32310000   -19.80000000
   95.22560000     8.30580000   -20.60000000
   95.26420000     8.28850000   -21.30000000
   95.30310000     8.27060000   -20.00000000
   95.34210000     8.25260000   -18.40000000
   95.38110000     8.23460000   -16.80000000
   95.42010000     8.21660000   -15.20000000
   95.45910000     8.19870000   -17.00000000
   95.49810000     8.18070000   -17.80000000
   95.52410000     8.16870000   -19.80000000
   95.53710000     8.16270000   -19.80000000
   95.57660000     8.14160000   -20.40000000
   95.60300000     8.12740000   -18.80000000
   95.62940000     8.11320000   -14.90000000
   95.65580000     8.09900000    -8.70000000
   95.68210000     8.08480000     0.10000000
   95.70850000     8.07050000    16.90000000
