   80.48890000     4.93640000   -79.80000000
   80.51740000     4.94240000   -79.90000000
   80.54550000     4.94930000   -79.00000000
   80.57370000     4.95620000   -79.10000000
   80.60180000     4.96310000   -80.20000000
   80.63000000     4.97000000   -81.40000000
   80.65850000     4.97630000   -80.40000000
   80.68710000     4.98260000   -80.50000000
   80.71560000     4.98890000   -77.50000000
   80.74410000     4.99530000   -75.60000000
   80.77270000     5.00160000   -75.70000000
   80.80090000     5.00780000   -77.70000000
   80.82910000     5.01410000   -77.80000000
   80.85740000     5.02030000   -76.80000000
   80.88560000     5.02650000   -73.90000000
   80.91380000     5.03280000   -73.00000000
   80.95930000     5.04270000   -72.20000000
   80.98710000     5.04890000   -72.30000000
   81.01490000     5.05500000   -72.40000000
   81.11750000     5.08400000   -78.90000000
   81.14420000     5.09170000   -80.00000000
   81.17090000     5.09930000   -80.10000000
   81.19760000     5.10690000   -80.20000000
   81.22390000     5.11420000   -82.60000000
   81.24970000     5.12120000   -82.70000000
   81.27560000     5.12820000   -82.80000000
   81.30150000     5.13530000   -84.00000000
   81.32840000     5.14260000   -81.60000000
   81.35560000     5.15010000   -79.70000000
   81.38280000     5.15750000   -77.80000000
   81.40990000     5.16500000   -76.90000000
   81.43710000     5.17240000   -75.00000000
   81.46430000     5.17990000   -72.00000000
   81.49170000     5.18500000   -71.60000000
   81.51820000     5.19090000   -71.80000000
   81.54480000     5.19680000   -68.90000000
   81.57130000     5.20270000   -67.90000000
   81.59790000     5.20860000   -67.00000000
   81.62450000     5.21450000   -67.10000000
   81.65100000     5.22040000   -66.20000000
   81.67760000     5.22630000   -66.30000000
   81.70410000     5.23230000   -66.40000000
   81.73070000     5.23820000   -65.40000000
   81.75730000     5.24410000   -66.60000000
   81.78380000     5.25000000   -62.50000000
   81.81050000     5.25590000   -60.30000000
   81.83720000     5.26180000   -59.30000000
   81.86390000     5.26770000   -60.50000000
   81.89060000     5.27370000   -61.50000000
   81.91730000     5.27960000   -62.60000000
   81.94400000     5.28550000   -62.80000000
   81.97060000     5.29140000   -61.80000000
   81.99760000     5.29710000   -60.50000000
   82.02480000     5.30240000   -59.50000000
   82.05200000     5.30760000   -60.60000000
   82.07920000     5.31220000   -62.00000000
   82.10640000     5.31600000   -64.10000000
   82.13360000     5.31990000   -64.20000000
   82.16070000     5.32370000   -65.20000000
   82.18790000     5.32760000   -64.30000000
   82.21410000     5.33150000   -68.50000000
   82.24010000     5.33540000   -67.50000000
   82.26610000     5.33930000   -68.60000000
   82.29260000     5.34350000   -67.20000000
   82.31990000     5.34820000   -67.20000000
   82.34730000     5.35290000   -67.30000000
   82.37460000     5.35760000   -69.40000000
   82.40200000     5.36230000   -68.50000000
   82.42930000     5.36700000   -67.60000000
   82.45670000     5.37170000   -66.60000000
   82.48400000     5.37640000   -67.70000000
   82.51130000     5.38110000   -64.70000000
   82.53870000     5.38580000   -63.80000000
   82.56600000     5.39050000   -63.80000000
   82.59340000     5.39520000   -63.00000000
   82.62080000     5.39850000   -62.80000000
   82.64820000     5.40180000   -61.80000000
   82.67560000     5.40510000   -62.00000000
   82.70300000     5.40850000   -62.00000000
   82.73050000     5.41180000   -62.00000000
   82.75790000     5.41510000   -63.10000000
   82.78530000     5.41840000   -63.10000000
   82.81270000     5.42170000   -63.30000000
   82.84010000     5.42500000   -63.30000000
   82.86760000     5.42840000   -63.30000000
   82.89500000     5.43170000   -62.30000000
   82.92160000     5.43420000   -64.60000000
   82.94850000     5.43680000   -62.80000000
   82.97540000     5.43930000   -63.00000000
   83.00230000     5.44180000   -63.00000000
   83.02920000     5.44440000   -63.00000000
   83.05610000     5.44690000   -61.00000000
   83.08300000     5.44950000   -62.00000000
   83.10980000     5.45210000   -61.30000000
   83.13660000     5.45460000   -60.30000000
   83.16340000     5.45720000   -58.30000000
   83.19030000     5.45980000   -58.30000000
   83.21710000     5.46230000   -59.50000000
   83.24390000     5.46490000   -59.50000000
   83.27060000     5.46740000   -60.80000000
   83.29730000     5.47000000   -61.00000000
   83.32400000     5.47260000   -61.00000000
   83.35060000     5.47510000   -60.00000000
   83.37730000     5.47720000   -59.30000000
   83.40390000     5.47850000   -58.30000000
   83.43040000     5.47970000   -58.30000000
   83.45700000     5.48100000   -56.30000000
   83.48360000     5.48230000   -54.30000000
   83.51020000     5.48360000   -54.30000000
   83.53670000     5.48480000   -53.30000000
   83.59020000     5.48740000   -55.60000000
   83.61700000     5.48870000   -55.80000000
   83.64390000     5.49000000   -55.80000000
   83.67070000     5.49130000   -56.80000000
   83.69760000     5.49250000   -56.80000000
   83.72440000     5.49380000   -57.80000000
   83.75130000     5.49510000   -57.80000000
   83.77810000     5.49640000   -57.80000000
   83.80500000     5.49770000   -61.00000000
   83.83180000     5.49900000   -61.00000000
   83.85890000     5.50010000   -60.50000000
   83.88670000     5.50070000   -60.50000000
   83.91460000     5.50130000   -60.10000000
   83.94260000     5.50190000   -63.30000000
   83.97050000     5.50250000   -63.30000000
   83.99850000     5.50310000   -63.30000000
   84.02640000     5.50370000   -62.30000000
   84.05440000     5.50430000   -62.30000000
   84.08230000     5.50490000   -59.10000000
   84.10650000     5.44670000   -55.50000000
   84.11030000     5.42170000   -54.00000000
   84.11410000     5.39670000   -53.60000000
   84.11790000     5.37180000   -52.10000000
   84.12160000     5.34680000   -50.80000000
   84.12540000     5.32180000   -48.30000000
   84.12920000     5.29680000   -47.80000000
   84.13450000     5.26190000   -48.30000000
   84.13680000     5.24690000   -48.00000000
   84.14050000     5.22240000   -44.60000000
   84.14430000     5.19780000   -44.30000000
   84.14800000     5.17330000   -43.80000000
   84.15180000     5.14880000   -40.50000000
   84.15550000     5.12420000   -40.00000000
   84.15930000     5.09970000   -39.60000000
   84.16300000     5.07520000   -38.30000000
   84.16670000     5.05060000   -35.80000000
   84.17050000     5.02610000   -33.30000000
   84.17420000     5.00160000   -33.00000000
   84.17780000     4.97660000   -33.00000000
   84.18140000     4.95160000   -32.60000000
   84.18500000     4.92660000   -33.30000000
   84.18860000     4.90160000   -33.00000000
   84.19130000     4.87700000   -37.30000000
   84.19350000     4.85260000   -35.80000000
   84.19570000     4.82820000   -34.50000000
   84.19790000     4.80380000   -36.10000000
   84.20010000     4.77930000   -35.80000000
   84.20230000     4.75490000   -33.30000000
   84.20460000     4.73050000   -35.00000000
   84.20680000     4.70610000   -34.60000000
   84.20900000     4.68170000   -33.30000000
   84.21120000     4.65720000   -33.00000000
   84.21330000     4.63330000   -34.80000000
   84.21580000     4.60930000   -34.60000000
   84.21820000     4.58530000   -35.30000000
   84.22070000     4.56130000   -35.00000000
   84.22310000     4.53730000   -37.80000000
   84.22560000     4.51320000   -38.30000000
   84.22800000     4.48920000   -40.00000000
   84.23050000     4.46510000   -40.00000000
   84.23330000     4.44060000   -40.60000000
   84.23600000     4.41610000   -41.30000000
   84.23880000     4.39150000   -42.00000000
   84.24150000     4.36700000   -43.70000000
   84.24430000     4.34200000   -44.30000000
   84.24710000     4.31690000   -44.00000000
   84.24990000     4.29190000   -43.50000000
   84.25270000     4.26680000   -45.30000000
   84.25550000     4.24180000   -45.00000000
   84.25830000     4.21670000   -45.60000000
   84.26110000     4.19170000   -44.30000000
   84.26340000     4.16640000   -46.80000000
   84.26550000     4.14110000   -45.50000000
   84.26760000     4.11570000   -48.30000000
   84.26970000     4.09040000   -46.80000000
   84.27180000     4.06510000   -43.50000000
   84.27290000     4.05180000   -45.10000000
   84.27500000     4.02670000   -44.00000000
   84.27700000     4.00160000   -45.30000000
   84.27850000     3.97620000   -44.00000000
   84.28000000     3.95080000   -43.60000000
   84.28160000     3.92540000   -44.30000000
   84.28310000     3.90000000   -43.00000000
   84.28460000     3.87460000   -43.70000000
   84.28610000     3.84920000   -42.30000000
   84.28770000     3.82360000   -42.00000000
   84.28960000     3.79860000   -40.30000000
   84.29170000     3.77420000   -38.00000000
   84.29370000     3.74970000   -35.60000000
   84.29570000     3.72480000   -35.10000000
   84.29750000     3.69950000   -34.80000000
   84.30050000     3.67420000   -33.10000000
   84.30360000     3.64900000   -31.80000000
   84.30660000     3.62380000   -32.60000000
   84.30970000     3.59860000   -32.30000000
   84.31270000     3.57340000   -33.00000000
   84.31500000     3.54840000   -35.50000000
   84.31700000     3.52350000   -37.10000000
   84.31910000     3.49860000   -36.80000000
   84.32120000     3.47370000   -37.60000000
   84.32330000     3.44870000   -36.30000000
   84.32540000     3.42360000   -37.00000000
   84.32750000     3.39850000   -36.80000000
   84.32960000     3.37350000   -38.50000000
   84.33160000     3.34840000   -36.30000000
   84.33370000     3.32340000   -38.00000000
   84.33610000     3.29840000   -37.30000000
   84.33870000     3.27360000   -39.00000000
   84.34130000     3.24880000   -40.80000000
   84.34400000     3.22360000   -43.50000000
   84.34670000     3.19850000   -44.30000000
   84.34940000     3.17340000   -46.00000000
   84.35260000     3.14830000   -44.50000000
   84.35580000     3.12330000   -46.30000000
   84.35900000     3.09820000   -47.00000000
   84.36210000     3.07430000   -48.30000000
   84.36510000     3.05040000   -50.00000000
   84.36820000     3.02650000   -50.80000000
   84.37140000     3.00140000   -54.30000000
   84.37460000     2.97640000   -54.00000000
   84.37780000     2.95140000   -54.80000000
   84.38090000     2.92750000   -55.00000000
   84.38390000     2.90340000   -56.80000000
   84.38700000     2.87900000   -57.60000000
   84.39000000     2.85460000   -57.50000000
   84.40820000     2.70820000   -53.10000000
   84.41130000     2.68390000   -53.00000000
   84.41430000     2.65960000   -53.80000000
   84.41730000     2.63540000   -53.50000000
   84.42030000     2.61110000   -52.30000000
   84.42340000     2.58680000   -51.10000000
   84.42640000     2.56250000   -50.00000000
   84.42940000     2.53830000   -47.60000000
   84.43240000     2.51400000   -47.50000000
   84.43550000     2.48970000   -48.30000000
   84.43840000     2.46590000   -47.50000000
   84.45640000     2.32220000   -41.00000000
   84.45940000     2.29810000   -36.80000000
   84.46280000     2.27360000   -34.10000000
   84.46630000     2.24900000   -33.00000000
   84.46980000     2.22440000   -31.80000000
   84.47340000     2.19980000   -33.60000000
   84.47690000     2.17510000   -32.50000000
   84.48040000     2.15050000   -31.20000000
   84.48370000     2.12700000   -28.40000000
   84.48710000     2.10350000   -31.30000000
   84.49050000     2.08000000   -32.30000000
   84.49390000     2.05590000   -35.00000000
   84.49780000     2.03200000   -29.30000000
   84.50370000     2.00860000   -31.20000000
   84.50950000     1.98520000   -31.00000000
   84.51530000     1.96180000   -33.00000000
   84.52120000     1.93840000   -32.80000000
   84.52680000     1.91620000   -34.10000000
   84.53250000     1.89390000   -35.00000000
   84.53820000     1.87160000   -34.80000000
   84.54400000     1.84850000   -37.50000000
   84.54980000     1.82540000   -36.30000000
   84.55560000     1.80230000   -37.30000000
   84.56140000     1.77920000   -37.10000000
   84.56720000     1.75610000   -37.00000000
   84.57300000     1.73300000   -36.80000000
   84.57900000     1.70850000   -38.30000000
   84.58500000     1.68400000   -39.10000000
   84.59100000     1.65950000   -42.00000000
   84.59680000     1.63550000   -43.30000000
   84.60270000     1.61140000   -47.30000000
   84.60860000     1.58730000   -47.10000000
   84.61450000     1.56260000   -47.80000000
   84.62040000     1.53790000   -47.80000000
   84.62630000     1.51330000   -47.60000000
   84.63240000     1.48740000   -48.00000000
   84.64900000     1.42250000   -56.50000000
   84.65480000     1.39830000   -57.50000000
   84.66070000     1.37400000   -57.30000000
   84.66660000     1.34970000   -59.30000000
   84.67250000     1.32540000   -59.10000000
   84.67830000     1.30120000   -61.10000000
   84.68420000     1.27720000   -62.10000000
   84.69000000     1.25330000   -62.00000000
   84.69620000     1.22930000   -64.00000000
   84.70240000     1.20540000   -63.80000000
   84.70870000     1.18140000   -62.80000000
   84.72110000     1.13340000   -61.50000000
   84.72740000     1.10940000   -61.50000000
   84.73360000     1.08540000   -60.30000000
   84.74440000     1.04910000   -61.10000000
   84.75060000     1.02490000   -62.10000000
   84.75690000     1.00070000   -58.00000000
   84.76320000     0.97650000   -55.80000000
   84.76940000     0.95220000   -54.80000000
   84.77570000     0.92800000   -54.60000000
   84.78190000     0.90380000   -54.60000000
   84.78820000     0.87950000   -56.50000000
   84.79450000     0.85480000   -56.30000000
   84.80090000     0.83020000   -58.30000000
   84.80720000     0.80560000   -56.10000000
   84.81360000     0.78110000   -53.00000000
   84.82000000     0.75650000   -53.00000000
   84.82630000     0.73200000   -50.80000000
   84.83140000     0.70730000   -52.10000000
   84.83650000     0.68270000   -51.10000000
   84.84160000     0.65800000   -51.00000000
   84.84670000     0.63330000   -50.00000000
   84.85210000     0.60830000   -48.00000000
   84.85750000     0.58320000   -49.00000000
   84.86300000     0.55810000   -47.80000000
   84.86840000     0.53300000   -48.80000000
   84.87390000     0.50790000   -47.80000000
   84.87930000     0.48270000   -47.80000000
   84.88480000     0.45750000   -48.60000000
   84.89020000     0.43220000   -47.60000000
   84.89570000     0.40700000   -45.50000000
   84.90110000     0.38180000   -45.50000000
   84.90620000     0.35710000   -47.50000000
   84.91090000     0.33290000   -46.50000000
   84.91560000     0.30870000   -45.30000000
   84.92030000     0.28450000   -43.30000000
   84.92420000     0.26000000   -43.50000000
   84.92800000     0.23560000   -42.50000000
   84.93190000     0.21120000   -39.50000000
   84.93600000     0.18680000   -35.00000000
   84.94110000     0.16280000   -34.00000000
   84.94620000     0.13870000   -32.00000000
   84.95130000     0.11460000   -28.90000000
   84.95640000     0.09050000   -26.80000000
   84.96150000     0.06640000   -24.80000000
   84.96660000     0.04230000   -23.80000000
   84.97680000    -0.00580000   -22.80000000
   84.98180000    -0.02980000   -20.80000000
   84.98690000    -0.05390000   -19.80000000
   84.99180000    -0.07790000   -20.30000000
   84.99630000    -0.10190000   -19.30000000
   85.00080000    -0.12590000   -18.30000000
   85.00540000    -0.14980000   -16.30000000
   85.00860000    -0.17320000   -18.80000000
   85.01180000    -0.19650000   -17.80000000
   85.01500000    -0.21980000   -18.80000000
   85.01820000    -0.24320000   -17.80000000
   85.02140000    -0.26650000   -17.90000000
   85.02470000    -0.28980000   -17.90000000
   85.02790000    -0.31310000   -19.90000000
   85.03110000    -0.33640000   -20.00000000
   85.03430000    -0.35970000   -21.00000000
   85.03750000    -0.38300000   -22.10000000
   85.04070000    -0.40640000   -23.10000000
   85.04370000    -0.42980000   -29.30000000
   85.04530000    -0.45370000   -29.40000000
   85.04700000    -0.47760000   -30.50000000
   85.04870000    -0.50140000   -32.50000000
   85.05030000    -0.52530000   -32.60000000
   85.05200000    -0.54920000   -33.60000000
   85.05360000    -0.57300000   -35.80000000
   85.05530000    -0.59690000   -34.80000000
   85.05700000    -0.62080000   -35.80000000
   85.05860000    -0.64460000   -37.00000000
   85.06030000    -0.66580000   -36.00000000
   85.06200000    -0.67630000   -37.00000000
   85.06360000    -0.68680000   -37.00000000
   85.06530000    -0.69730000   -38.00000000
   85.06700000    -0.70780000   -37.00000000
   85.06860000    -0.72390000   -38.00000000
   85.07030000    -0.74860000   -38.10000000
   85.07200000    -0.77310000   -37.60000000
   85.07350000    -0.79710000   -37.80000000
   85.07500000    -0.82100000   -37.80000000
   85.07650000    -0.84500000   -36.80000000
   85.07800000    -0.86900000   -36.80000000
   85.07950000    -0.89290000   -37.00000000
   85.08100000    -0.91690000   -38.00000000
   85.08250000    -0.94090000   -38.00000000
   85.08400000    -0.96480000   -38.10000000
   85.08550000    -0.98880000   -39.30000000
   85.08700000    -1.01270000   -39.30000000
   85.08850000    -1.03680000   -39.50000000
   85.09000000    -1.06080000   -38.50000000
   85.09150000    -1.08480000   -39.50000000
   85.09300000    -1.10880000   -39.60000000
   85.09450000    -1.13280000   -39.80000000
   85.09600000    -1.15680000   -38.80000000
   85.09750000    -1.18080000   -37.80000000
   85.09900000    -1.20490000   -37.00000000
   85.10050000    -1.22890000   -37.00000000
   85.10200000    -1.25290000   -37.10000000
   85.10350000    -1.27130000   -36.10000000
   85.10500000    -1.28120000   -37.30000000
   85.10650000    -1.29120000   -36.30000000
   85.11260000    -1.36760000   -34.50000000
   85.11290000    -1.39270000   -33.60000000
   85.11330000    -1.41780000   -31.80000000
   85.11360000    -1.44300000   -30.80000000
   85.11510000    -1.46820000   -28.90000000
   85.11800000    -1.49330000   -26.80000000
   85.12150000    -1.51830000   -23.90000000
   85.12490000    -1.54330000   -24.00000000
   85.12830000    -1.56830000   -23.10000000
   85.13230000    -1.59310000   -22.90000000
   85.13620000    -1.61790000   -23.00000000
   85.14010000    -1.64270000   -24.10000000
   85.14410000    -1.66750000   -25.30000000
   85.14800000    -1.69230000   -27.40000000
   85.15200000    -1.71710000   -28.60000000
   85.15590000    -1.74170000   -30.80000000
   85.15980000    -1.76650000   -32.10000000
   85.16360000    -1.79130000   -34.30000000
   85.16750000    -1.81610000   -34.50000000
   85.17130000    -1.84090000   -37.80000000
   85.17520000    -1.86570000   -38.80000000
   85.17910000    -1.89050000   -42.00000000
   85.18290000    -1.91530000   -44.30000000
   85.18680000    -1.94010000   -47.50000000
   85.19050000    -1.96510000   -50.30000000
   85.19420000    -1.99030000   -51.30000000
   85.19780000    -2.01550000   -51.50000000
   85.20150000    -2.04040000   -51.80000000
   85.20510000    -2.06520000   -52.00000000
   85.20870000    -2.09010000   -52.10000000
   85.21240000    -2.11500000   -50.30000000
   85.21600000    -2.14000000   -50.50000000
   85.21960000    -2.16500000   -50.50000000
   85.22330000    -2.19000000   -50.80000000
   85.22690000    -2.21500000   -52.00000000
   85.23070000    -2.24020000   -52.30000000
   85.23460000    -2.26550000   -52.50000000
   85.23860000    -2.29080000   -51.60000000
   85.24260000    -2.31610000   -50.80000000
   85.24650000    -2.34160000   -48.80000000
   85.25050000    -2.36720000   -49.00000000
   85.25450000    -2.39270000   -48.30000000
   85.25850000    -2.41830000   -48.50000000
   85.26240000    -2.44390000   -47.50000000
   85.26640000    -2.46940000   -46.80000000
   85.27040000    -2.49500000   -47.00000000
   85.27440000    -2.52050000   -46.10000000
   85.27830000    -2.54610000   -46.30000000
   85.28230000    -2.57160000   -44.50000000
   85.28630000    -2.59720000   -43.60000000
   85.29030000    -2.62270000   -43.80000000
   85.29420000    -2.64810000   -44.10000000
   85.29820000    -2.67360000   -45.30000000
   85.30220000    -2.69900000   -45.50000000
   85.30610000    -2.72440000   -46.80000000
   85.31010000    -2.74980000   -46.00000000
   85.31410000    -2.77520000   -48.30000000
   85.31800000    -2.80060000   -48.50000000
   85.32200000    -2.82600000   -49.80000000
   85.32590000    -2.85140000   -51.00000000
   85.32960000    -2.87680000   -54.50000000
   85.33270000    -2.90220000   -55.60000000
   85.33590000    -2.92760000   -56.00000000
   85.33900000    -2.95310000   -58.10000000
   85.34220000    -2.97850000   -58.50000000
   85.34530000    -3.00400000   -59.60000000
   85.34850000    -3.02950000   -58.80000000
   85.35170000    -3.05500000   -59.10000000
   85.35470000    -3.07970000   -58.60000000
   85.35770000    -3.10450000   -58.00000000
   85.36070000    -3.12920000   -56.10000000
   85.36380000    -3.15400000   -56.30000000
   85.36680000    -3.17870000   -57.60000000
   85.36980000    -3.20350000   -54.80000000
   85.37290000    -3.22880000   -53.00000000
   85.37600000    -3.25460000   -51.10000000
   85.37900000    -3.28050000   -49.30000000
   85.38210000    -3.30630000   -48.60000000
   85.38480000    -3.33180000   -47.30000000
   85.38740000    -3.35710000   -44.50000000
   85.38990000    -3.38230000   -43.70000000
   85.39240000    -3.40760000   -41.00000000
   85.39490000    -3.43280000   -39.10000000
   85.40000000    -3.48330000   -37.60000000
   85.41080000    -3.55970000   -28.50000000
   85.41440000    -3.58510000   -28.80000000
   85.41800000    -3.61040000   -28.00000000
   85.42160000    -3.63570000   -28.30000000
   85.42880000    -3.68640000   -26.80000000
   85.43240000    -3.71180000   -28.00000000
   85.43600000    -3.73730000   -29.30000000
   85.43970000    -3.76280000   -30.60000000
   85.44330000    -3.78840000   -32.00000000
   85.44700000    -3.81390000   -32.30000000
   85.45060000    -3.83940000   -34.60000000
   85.45430000    -3.86510000   -35.00000000
   85.45800000    -3.89070000   -34.30000000
   85.46160000    -3.91640000   -34.50000000
   85.46530000    -3.94200000   -34.80000000
   85.46890000    -3.96770000   -35.10000000
   85.47260000    -3.99330000   -35.50000000
   85.47630000    -4.01890000   -35.80000000
   85.47990000    -4.04460000   -36.10000000
   85.48360000    -4.07020000   -35.50000000
   85.48730000    -4.09590000   -35.80000000
   85.49090000    -4.12150000   -38.10000000
   85.49430000    -4.14690000   -39.50000000
   85.49760000    -4.17190000   -41.80000000
   85.50090000    -4.19690000   -42.10000000
   85.50420000    -4.22190000   -43.50000000
   85.50750000    -4.24680000   -43.80000000
   85.51080000    -4.27180000   -44.10000000
   85.51410000    -4.29680000   -44.50000000
   85.51740000    -4.32170000   -44.80000000
   85.52070000    -4.34670000   -44.10000000
   85.52400000    -4.37170000   -45.50000000
   85.52720000    -4.39670000   -46.50000000
   85.52980000    -4.42170000   -46.00000000
   85.53250000    -4.44670000   -45.30000000
   85.53510000    -4.47190000   -44.50000000
   85.53780000    -4.49710000   -43.80000000
   85.54050000    -4.52240000   -44.30000000
   85.54310000    -4.54760000   -43.50000000
   85.54580000    -4.57280000   -42.80000000
   85.54850000    -4.59810000   -41.30000000
   85.55110000    -4.62330000   -40.50000000
   85.55410000    -4.64890000   -37.80000000
   85.55720000    -4.67470000   -36.10000000
   85.56020000    -4.70050000   -34.50000000
   85.59700000    -4.97790000   -27.90000000
   85.60080000    -5.00000000   -28.90000000
   85.60420000    -5.01770000   -28.30000000
   85.60760000    -5.03540000   -28.50000000
   85.61100000    -5.05310000   -28.80000000
   85.61520000    -5.07090000   -26.30000000
   85.61960000    -5.08860000   -26.60000000
   85.62400000    -5.10630000   -26.80000000
   85.62840000    -5.12400000   -25.10000000
   85.63290000    -5.14180000   -24.30000000
   85.63730000    -5.15980000   -24.60000000
   85.64170000    -5.17770000   -25.90000000
   85.64620000    -5.19570000   -26.30000000
   85.66430000    -5.27220000   -22.90000000
   85.66930000    -5.29660000   -22.30000000
   85.67430000    -5.32100000   -19.60000000
   85.67930000    -5.34550000   -21.00000000
   85.69210000    -5.41880000   -21.80000000
   85.69620000    -5.44330000   -21.30000000
   85.70020000    -5.46780000   -19.60000000
   85.70420000    -5.49220000   -19.00000000
   85.70820000    -5.51670000   -19.40000000
   85.71220000    -5.54120000   -18.80000000
   85.72040000    -5.51430000   -17.50000000
   85.72860000    -5.48750000   -18.00000000
   85.73670000    -5.46070000   -17.60000000
   85.74460000    -5.43390000   -18.40000000
   85.75230000    -5.40720000   -17.90000000
   85.76000000    -5.38040000   -17.50000000
   85.76760000    -5.35370000   -17.00000000
   85.77530000    -5.32690000   -17.60000000
   85.78300000    -5.30010000   -17.30000000
   85.79070000    -5.27340000   -18.80000000
   85.79840000    -5.24660000   -19.40000000
   85.80600000    -5.21980000   -19.90000000
   85.81380000    -5.19280000   -20.30000000
   85.82150000    -5.16580000   -18.90000000
   85.82930000    -5.13880000   -17.40000000
   85.83700000    -5.11180000   -13.90000000
   85.84470000    -5.08480000   -13.60000000
   85.85250000    -5.05780000   -11.10000000
   85.86020000    -5.03080000    -7.70000000
   85.86820000    -5.00460000    -5.10000000
   85.87640000    -4.97890000    -3.60000000
   85.88450000    -4.95330000    -3.30000000
   85.89260000    -4.92760000    -2.80000000
   85.90080000    -4.90200000    -4.60000000
   85.90900000    -4.87620000    -6.20000000
   85.91710000    -4.85050000    -8.70000000
   85.92530000    -4.82470000   -11.40000000
   85.93350000    -4.79890000   -11.10000000
   85.94140000    -4.77290000   -16.00000000
   85.94490000    -4.75930000   -18.70000000
   85.95190000    -4.73210000   -18.30000000
   85.95890000    -4.70480000   -18.90000000
   85.96580000    -4.67760000   -18.50000000
   85.97280000    -4.65030000   -18.10000000
   85.97980000    -4.62310000   -17.80000000
   85.98680000    -4.59580000   -17.30000000
   85.99370000    -4.56860000   -16.90000000
   86.00370000    -4.53010000   -17.00000000
   86.00640000    -4.51740000   -19.40000000
   86.00880000    -4.50460000   -19.30000000
   86.01110000    -4.49190000   -19.10000000
   86.01350000    -4.47920000   -18.90000000
   86.01580000    -4.46640000   -18.70000000
   86.01820000    -4.45370000   -18.50000000
   86.02260000    -4.43240000   -15.90000000
   86.02910000    -4.40560000   -14.30000000
   86.03580000    -4.37880000   -13.90000000
   86.04260000    -4.35200000   -12.40000000
   86.04940000    -4.32530000   -12.10000000
   86.05620000    -4.29850000   -11.80000000
   86.06290000    -4.27170000   -12.40000000
   86.06970000    -4.24490000    -9.90000000
   86.07650000    -4.21810000    -8.70000000
   86.08320000    -4.19150000    -8.40000000
   86.08990000    -4.16490000    -8.10000000
   86.09670000    -4.13830000   -11.80000000
   86.10340000    -4.11170000   -12.40000000
   86.11010000    -4.08510000   -15.20000000
   86.11690000    -4.05850000   -15.90000000
   86.12360000    -4.03190000   -16.60000000
   86.13030000    -4.00530000   -17.30000000
   86.13680000    -3.97880000   -20.90000000
   86.14320000    -3.95240000   -21.60000000
   86.14960000    -3.92590000   -21.30000000
   86.15600000    -3.89950000   -23.00000000
   86.16240000    -3.87300000   -23.80000000
   86.16880000    -3.84660000   -24.40000000
   86.17520000    -3.82020000   -25.10000000
   86.18170000    -3.79370000   -25.80000000
   86.18810000    -3.76730000   -25.50000000
   86.19450000    -3.74090000   -26.30000000
   86.20110000    -3.71440000   -26.80000000
   86.20790000    -3.68780000   -26.40000000
   86.21480000    -3.66120000   -27.10000000
   86.22170000    -3.63460000   -28.80000000
   86.22850000    -3.60800000   -30.60000000
   86.23540000    -3.58140000   -30.30000000
   86.24220000    -3.55490000   -31.10000000
   86.24900000    -3.52850000   -32.80000000
   86.25590000    -3.50200000   -34.60000000
   86.26270000    -3.47560000   -35.30000000
   86.26950000    -3.44920000   -38.10000000
   86.27630000    -3.42270000   -39.80000000
   86.28320000    -3.39630000   -41.60000000
   86.29000000    -3.36980000   -42.30000000
   86.29680000    -3.34340000   -43.10000000
   86.30360000    -3.31700000   -42.80000000
   86.31150000    -3.29050000   -40.00000000
   86.31970000    -3.26410000   -39.80000000
   86.32790000    -3.23770000   -39.50000000
   86.33600000    -3.21120000   -38.10000000
   86.34420000    -3.18480000   -36.80000000
   86.35240000    -3.15830000   -35.50000000
   86.36060000    -3.13190000   -33.30000000
   86.36870000    -3.10540000   -30.90000000
   86.37690000    -3.07900000   -29.60000000
   86.38510000    -3.05250000   -27.30000000
   86.39300000    -3.02610000   -28.10000000
   86.40040000    -2.99980000   -24.80000000
   86.40780000    -2.97350000   -23.50000000
   86.41520000    -2.94710000   -22.30000000
   86.42260000    -2.92110000   -21.30000000
   86.42990000    -2.89510000   -21.00000000
   86.43730000    -2.86910000   -20.80000000
   86.44460000    -2.84310000   -18.40000000
   86.45200000    -2.81700000   -17.30000000
   86.45930000    -2.79100000   -18.00000000
   86.46670000    -2.76500000   -17.80000000
   86.47390000    -2.73950000   -17.90000000
   86.48110000    -2.71400000   -19.80000000
   86.48830000    -2.68850000   -21.50000000
   86.49560000    -2.66300000   -21.30000000
   86.50280000    -2.63750000   -24.10000000
   86.51010000    -2.61180000   -25.80000000
   86.51730000    -2.58610000   -27.60000000
   86.52460000    -2.56040000   -29.50000000
   86.53190000    -2.53460000   -31.30000000
   86.53920000    -2.50890000   -33.10000000
   86.54670000    -2.48310000   -33.10000000
   86.55500000    -2.45720000   -35.00000000
   86.56330000    -2.43130000   -35.80000000
   86.57170000    -2.40530000   -36.60000000
   86.58000000    -2.37940000   -36.50000000
   86.58840000    -2.35340000   -38.30000000
   86.59670000    -2.32750000   -41.10000000
   86.62100000    -2.25020000   -36.50000000
   86.62900000    -2.22450000   -35.30000000
   86.63700000    -2.19870000   -34.00000000
   86.64500000    -2.17300000   -34.80000000
   86.65300000    -2.14730000   -34.80000000
   86.66100000    -2.12160000   -35.50000000
   86.66900000    -2.09580000   -35.30000000
   86.67700000    -2.07010000   -36.30000000
   86.68500000    -2.04440000   -37.00000000
   86.69300000    -2.01860000   -39.00000000
   86.70100000    -1.99280000   -38.80000000
   86.70910000    -1.96700000   -39.60000000
   86.71710000    -1.94120000   -41.50000000
   86.72510000    -1.91530000   -43.30000000
   86.73410000    -1.88980000   -40.00000000
   86.74370000    -1.86430000   -39.80000000
   86.75330000    -1.83890000   -39.80000000
   86.76290000    -1.81350000   -42.60000000
   86.77240000    -1.78810000   -42.50000000
   86.78200000    -1.76270000   -44.30000000
   86.79160000    -1.73730000   -42.30000000
   86.80120000    -1.71180000   -41.00000000
   86.81060000    -1.68710000   -41.30000000
   86.82010000    -1.66230000   -41.30000000
   86.82950000    -1.63750000   -41.10000000
   86.83890000    -1.61270000   -40.00000000
   86.87010000    -1.53780000   -40.50000000
   86.87880000    -1.51160000   -40.30000000
   86.88760000    -1.48540000   -40.30000000
   86.89630000    -1.45920000   -41.10000000
   86.90500000    -1.43300000   -41.00000000
   86.91370000    -1.40680000   -40.80000000
   86.92240000    -1.38060000   -40.80000000
   86.93110000    -1.35430000   -40.60000000
   86.93980000    -1.32810000   -40.50000000
   86.94850000    -1.30190000   -40.50000000
   86.95720000    -1.27570000   -40.30000000
   86.96590000    -1.24960000   -39.30000000
   86.97460000    -1.22360000   -39.30000000
   86.98330000    -1.19750000   -39.10000000
   86.99200000    -1.17140000   -38.00000000
   87.00060000    -1.14530000   -39.00000000
   87.00930000    -1.11920000   -37.80000000
   87.01800000    -1.09320000   -38.80000000
   87.02670000    -1.06710000   -38.60000000
   87.03530000    -1.04100000   -38.50000000
   87.04400000    -1.01490000   -38.50000000
   87.05270000    -0.98890000   -39.50000000
   87.06140000    -0.96280000   -40.30000000
   87.07000000    -0.93670000   -40.30000000
   87.07870000    -0.91070000   -39.10000000
   87.08740000    -0.88460000   -40.10000000
   87.09610000    -0.85860000   -41.00000000
   87.10470000    -0.83250000   -40.00000000
   87.11340000    -0.80650000   -40.30000000
   87.12190000    -0.78040000   -40.30000000
   87.13040000    -0.75430000   -39.10000000
   87.13900000    -0.72820000   -38.00000000
   87.14750000    -0.70210000   -38.00000000
   87.15600000    -0.67600000   -38.00000000
   87.16460000    -0.65000000   -36.80000000
   87.17220000    -0.62350000   -36.00000000
   87.17990000    -0.59700000   -34.00000000
   87.18760000    -0.57040000   -31.90000000
   87.19530000    -0.54390000   -29.80000000
   87.20290000    -0.51710000   -27.60000000
   87.21070000    -0.49000000   -25.50000000
   87.21840000    -0.46290000   -25.40000000
   87.22610000    -0.43580000   -25.40000000
   87.23380000    -0.40870000   -25.40000000
   87.24160000    -0.38160000   -25.30000000
   87.24930000    -0.35450000   -26.30000000
   87.25700000    -0.32740000   -26.30000000
   87.26470000    -0.30040000   -25.30000000
   87.26990000    -0.28500000   -27.80000000
   87.27410000    -0.27470000   -26.80000000
   87.28150000    -0.24870000   -24.80000000
   87.28900000    -0.22280000   -25.80000000
   87.29650000    -0.19680000   -25.80000000
   87.30400000    -0.17080000   -26.80000000
   87.31160000    -0.14480000   -25.40000000
   87.31960000    -0.11850000   -25.40000000
   87.32770000    -0.09200000   -26.30000000
   87.33570000    -0.06550000   -25.30000000
   87.34380000    -0.03900000   -24.30000000
   87.35180000    -0.01260000   -23.30000000
   87.36000000     0.01350000   -22.50000000
   87.36830000     0.03900000   -22.50000000
   87.37660000     0.06440000   -22.50000000
   87.38490000     0.08990000   -21.50000000
   87.39320000     0.11530000   -21.50000000
   87.40160000     0.14100000   -24.50000000
   87.40990000     0.16660000   -25.50000000
   87.41830000     0.19220000   -26.50000000
   87.42660000     0.21780000   -26.50000000
   87.43500000     0.24340000   -26.80000000
   87.44330000     0.26860000   -27.80000000
   87.45160000     0.29380000   -27.80000000
   87.45980000     0.31900000   -27.80000000
   87.46810000     0.34420000   -27.80000000
   87.47550000     0.36960000   -28.30000000
   87.48290000     0.39490000   -29.30000000
   87.49030000     0.42030000   -29.40000000
   87.49770000     0.44570000   -29.40000000
   87.50500000     0.47100000   -29.40000000
   87.51240000     0.49640000   -29.50000000
   87.51990000     0.52180000   -28.90000000
   87.52790000     0.54770000   -29.00000000
   87.53590000     0.57350000   -29.00000000
   87.54390000     0.59950000   -29.00000000
   87.56790000     0.67760000   -29.10000000
   87.57600000     0.70360000   -27.10000000
   87.58400000     0.72960000   -26.30000000
   87.59200000     0.75560000   -25.30000000
   87.60000000     0.78170000   -24.30000000
   87.60730000     0.80720000   -25.10000000
   87.61470000     0.83280000   -25.30000000
   87.62200000     0.85840000   -24.30000000
   87.62940000     0.88400000   -22.30000000
   87.63440000     0.91030000   -22.30000000
   87.63950000     0.93650000   -22.40000000
   87.64460000     0.96280000   -23.50000000
   87.64960000     0.98910000   -22.90000000
   87.65460000     1.01530000   -23.00000000
   87.65960000     1.04150000   -23.00000000
   87.66450000     1.06770000   -22.10000000
   87.66950000     1.09400000   -22.30000000
   87.67450000     1.12020000   -23.30000000
   87.67940000     1.14640000   -20.30000000
   87.68440000     1.17260000   -18.40000000
   87.68930000     1.19890000   -16.50000000
   87.69430000     1.22550000   -14.40000000
   87.69930000     1.25210000   -14.60000000
   87.70430000     1.27870000   -13.70000000
   87.70940000     1.30550000   -12.10000000
   87.71460000     1.33270000   -11.20000000
   87.71990000     1.36000000   -12.30000000
   87.72520000     1.38730000   -11.40000000
   87.73040000     1.41460000   -10.40000000
   87.73570000     1.44190000   -10.60000000
   87.74100000     1.46920000    -9.70000000
   87.74620000     1.49640000    -8.70000000
   87.75150000     1.52370000    -8.00000000
   87.75680000     1.55110000    -6.00000000
   87.76210000     1.57850000    -4.10000000
   87.76730000     1.60590000    -3.10000000
   87.77260000     1.63330000    -3.30000000
   87.77790000     1.66070000    -5.60000000
   87.78340000     1.68750000    -6.50000000
   87.78920000     1.71400000    -7.60000000
   87.79490000     1.74040000    -8.70000000
   87.80070000     1.76680000    -8.90000000
   87.80640000     1.79330000    -9.10000000
   87.81220000     1.81970000    -9.20000000
   87.81810000     1.84820000    -8.90000000
   87.80280000     1.89120000   -13.40000000
   87.79770000     1.90550000   -12.40000000
   87.79280000     1.91820000   -11.90000000
   87.78790000     1.93060000   -10.90000000
   87.78300000     1.94290000   -10.10000000
   87.77810000     1.95530000   -10.20000000
   87.77320000     1.96760000    -7.20000000
   87.76830000     1.98000000    -7.30000000
   87.75960000     2.00420000    -7.00000000
   87.75530000     2.01620000    -5.00000000
   87.75090000     2.02820000    -6.10000000
   87.72010000     2.09640000    -8.90000000
   87.70940000     2.11750000   -11.70000000
   87.69830000     2.13820000   -13.90000000
   87.68730000     2.15890000   -14.90000000
   87.67620000     2.17970000   -16.10000000
   87.66510000     2.20040000   -17.30000000
   87.65400000     2.22110000   -19.50000000
   87.64270000     2.24220000   -21.30000000
   87.63130000     2.26330000   -23.40000000
   87.62000000     2.28430000   -24.60000000
   87.60870000     2.30540000   -26.80000000
   87.59740000     2.32650000   -28.00000000
   87.58590000     2.34770000   -30.80000000
   87.57350000     2.36960000   -33.00000000
   87.56120000     2.39150000   -37.30000000
   87.53540000     2.43440000   -35.50000000
   87.52200000     2.45550000   -36.80000000
   87.50850000     2.47650000   -37.00000000
   87.49510000     2.49760000   -37.00000000
   87.48160000     2.51860000   -37.30000000
   87.46820000     2.53970000   -38.50000000
   87.45470000     2.56070000   -39.60000000
   87.44120000     2.58190000   -40.30000000
   87.42760000     2.60340000   -40.30000000
   87.41400000     2.62480000   -40.50000000
   87.40050000     2.64620000   -41.60000000
   87.38690000     2.66760000   -42.80000000
   87.37340000     2.68910000   -44.00000000
   87.35980000     2.71050000   -44.10000000
   87.34650000     2.73220000   -45.00000000
   87.33340000     2.75430000   -45.10000000
   87.32040000     2.77630000   -45.30000000
   87.30740000     2.79840000   -46.50000000
   87.29440000     2.82050000   -45.80000000
   87.28140000     2.84260000   -47.00000000
   87.26830000     2.86470000   -46.10000000
   87.25530000     2.88670000   -45.30000000
   87.24230000     2.90880000   -43.50000000
   87.22930000     2.93090000   -42.50000000
   87.21630000     2.95290000   -41.80000000
   87.20330000     2.97500000   -42.00000000
   87.19020000     2.99600000   -39.50000000
   87.17710000     3.01710000   -37.60000000
   87.16400000     3.03810000   -35.80000000
   87.15090000     3.05910000   -35.00000000
   87.13720000     3.08060000   -35.30000000
   87.12330000     3.10230000   -34.50000000
   87.10940000     3.12390000   -33.80000000
   87.09560000     3.14540000   -30.50000000
   87.08180000     3.16690000   -30.80000000
   87.06800000     3.18840000   -31.00000000
   87.05410000     3.20990000   -31.20000000
   87.04030000     3.23140000   -31.40000000
   87.02650000     3.25290000   -31.60000000
   87.01270000     3.27450000   -31.80000000
   86.99880000     3.29600000   -33.60000000
   86.98440000     3.31760000   -35.00000000
   86.97000000     3.33930000   -35.10000000
   86.95560000     3.36090000   -35.30000000
   86.94120000     3.38250000   -35.60000000
   86.92690000     3.40390000   -37.50000000
   86.91270000     3.42530000   -37.60000000
   86.89850000     3.44670000   -37.80000000
   86.88430000     3.46810000   -37.00000000
   86.87000000     3.48950000   -37.30000000
   86.85580000     3.51090000   -36.50000000
   86.84170000     3.53210000   -34.30000000
   86.82760000     3.55330000   -33.50000000
   86.81360000     3.57460000   -32.80000000
   86.79950000     3.59580000   -33.00000000
   86.78440000     3.61730000   -36.60000000
   86.76900000     3.63900000   -34.80000000
   86.75360000     3.66070000   -36.10000000
   86.74170000     3.67780000   -32.00000000
   86.73060000     3.69390000   -33.30000000
   86.71940000     3.70990000   -32.50000000
   86.70830000     3.72600000   -30.50000000
   86.69720000     3.74200000   -30.80000000
   86.68610000     3.75800000   -29.90000000
   86.67500000     3.77410000   -30.10000000
   86.66390000     3.79010000   -30.30000000
   86.65250000     3.80530000   -31.10000000
   86.64120000     3.82040000   -30.30000000
   86.62980000     3.83540000   -30.50000000
   86.54050000     3.96250000   -35.50000000
   86.52630000     3.98420000   -34.80000000
   86.51210000     4.00590000   -35.50000000
   86.49770000     4.02700000   -36.80000000
   86.48340000     4.04800000   -38.10000000
   86.46900000     4.06910000   -39.30000000
   86.45460000     4.09020000   -41.80000000
   86.44050000     4.11100000   -42.50000000
   86.42630000     4.13170000   -42.60000000
   86.41220000     4.15240000   -41.00000000
   86.39840000     4.17260000   -41.30000000
   86.38450000     4.19290000   -40.50000000
   86.37070000     4.21310000   -40.80000000
   86.35680000     4.23330000   -39.00000000
   86.34300000     4.25360000   -36.30000000
   86.32910000     4.27380000   -35.50000000
   86.31530000     4.29410000   -33.80000000
   86.30140000     4.31430000   -33.00000000
   86.28760000     4.33450000   -32.30000000
   86.27510000     4.35270000   -29.00000000
   86.26080000     4.37300000   -28.80000000
   86.24610000     4.39300000   -27.10000000
   86.23150000     4.41300000   -26.30000000
   86.21680000     4.43300000   -25.60000000
   86.20210000     4.45300000   -24.80000000
   86.18760000     4.47270000   -22.30000000
   86.17320000     4.49190000   -21.60000000
   86.15880000     4.51120000   -19.80000000
   86.14440000     4.53040000   -18.10000000
   86.13000000     4.54960000   -17.30000000
   86.11560000     4.56880000   -16.60000000
   86.10140000     4.58770000   -15.30000000
   86.08720000     4.60660000   -16.40000000
   86.07310000     4.62540000   -16.80000000
   86.05890000     4.64430000   -17.00000000
   86.04480000     4.66320000   -19.30000000
   86.03060000     4.68200000   -19.60000000
   86.01650000     4.70090000   -22.90000000
   86.00230000     4.71970000   -24.30000000
   85.98810000     4.73860000   -26.50000000
   85.97400000     4.75750000   -28.80000000
   85.96060000     4.77700000   -27.60000000
   85.94780000     4.79700000   -30.00000000
   85.93560000     4.81690000   -30.80000000
   85.92450000     4.83670000   -35.10000000
   85.91340000     4.85640000   -36.50000000
   85.90230000     4.87620000   -38.80000000
   85.89110000     4.89600000   -40.10000000
   85.88000000     4.91570000   -44.50000000
   85.86890000     4.93550000   -44.80000000
   85.85780000     4.95520000   -46.10000000
   85.84670000     4.97500000   -46.50000000
   85.83510000     4.99440000   -47.80000000
   85.82360000     5.01380000   -50.30000000
   85.81200000     5.03320000   -51.50000000
   85.80050000     5.05260000   -53.80000000
   85.78900000     5.07200000   -54.10000000
   85.77740000     5.09130000   -55.50000000
   85.76590000     5.11070000   -56.80000000
   85.75430000     5.13010000   -57.10000000
   85.74280000     5.14950000   -57.50000000
   85.73130000     5.16890000   -54.60000000
   85.71900000     5.18790000   -56.30000000
   85.70620000     5.20660000   -54.50000000
   85.69340000     5.22530000   -52.80000000
   85.68060000     5.24410000   -50.10000000
   85.66780000     5.26280000   -50.50000000
   85.65520000     5.28110000   -50.00000000
   85.64260000     5.29950000   -50.30000000
   85.63010000     5.31780000   -53.80000000
   85.61750000     5.33620000   -55.00000000
   85.60490000     5.35450000   -56.50000000
   85.59240000     5.37280000   -57.80000000
   85.57980000     5.39120000   -60.00000000
   85.56720000     5.40950000   -59.30000000
   85.55460000     5.42790000   -58.60000000
   85.54250000     5.44710000   -57.60000000
   85.53050000     5.46640000   -58.00000000
   85.51840000     5.48560000   -56.20000000
   85.51150000     5.50940000   -51.50000000
   85.50850000     5.52140000   -50.80000000
   85.50560000     5.53330000   -50.00000000
   85.50260000     5.54530000   -49.10000000
   85.49970000     5.55730000   -49.30000000
   85.49670000     5.56930000   -49.50000000
   85.49380000     5.58130000   -48.80000000
   85.49090000     5.59330000   -48.00000000
   85.48790000     5.60520000   -47.10000000
   85.48500000     5.61720000   -47.30000000
   85.48200000     5.62920000   -46.50000000
   85.47890000     5.64190000   -46.30000000
   85.47580000     5.65460000   -46.50000000
   85.47260000     5.66730000   -46.80000000
   85.46950000     5.68000000   -47.00000000
   85.46430000     5.72280000   -42.00000000
   85.46170000     5.74520000   -42.50000000
   85.45920000     5.76760000   -40.80000000
   85.45670000     5.79000000   -40.10000000
   85.45600000     5.81330000   -34.50000000
   85.45540000     5.83660000   -34.00000000
   85.45470000     5.85990000   -34.30000000
   85.45400000     5.88320000   -33.80000000
   85.45340000     5.90650000   -34.10000000
   85.45270000     5.92980000   -33.60000000
   85.45210000     5.95310000   -35.00000000
   85.45140000     5.97640000   -33.50000000
   85.45080000     5.99970000   -32.80000000
   85.45010000     6.02300000   -33.30000000
   85.44940000     6.04630000   -33.80000000
   85.44880000     6.06960000   -32.10000000
   85.44810000     6.09290000   -32.50000000
   85.44750000     6.11620000   -33.00000000
   85.44680000     6.13950000   -31.40000000
   85.43890000     6.41900000   -28.80000000
   85.43610000     6.44200000   -31.90000000
   85.43320000     6.46490000   -30.30000000
   85.43040000     6.48780000   -30.80000000
   85.42750000     6.51080000   -30.30000000
   85.42470000     6.53370000   -31.80000000
   85.42180000     6.55660000   -31.20000000
   85.41900000     6.57960000   -30.60000000
   85.41610000     6.60250000   -31.10000000
   85.41330000     6.62540000   -30.60000000
   85.41040000     6.64840000   -31.00000000
   85.40760000     6.67130000   -30.50000000
   85.40470000     6.69420000   -29.90000000
   85.40190000     6.71720000   -30.40000000
   85.39900000     6.74010000   -29.90000000
   85.39620000     6.76300000   -30.40000000
   85.39330000     6.78600000   -30.80000000
   85.39050000     6.80890000   -30.30000000
   85.38760000     6.83180000   -29.80000000
   85.38480000     6.85480000   -27.30000000
   85.38190000     6.87770000   -26.80000000
   85.37910000     6.90060000   -27.30000000
   85.37620000     6.92360000   -24.60000000
   85.37340000     6.94650000   -27.10000000
   85.37050000     6.96940000   -25.60000000
   85.36770000     6.99240000   -25.10000000
   85.36490000     7.01530000   -23.50000000
   85.36200000     7.03820000   -25.10000000
   85.35920000     7.06120000   -25.60000000
