   78.83772000     3.34128000    -1.40000000
   78.83780000     3.33825000    -0.20000000
   78.83797000     3.33526000     3.20000000
   78.83813000     3.33227000     2.20000000
   78.83879000     3.32029000     5.20000000
   78.83895000     3.31730000     5.20000000
   78.83912000     3.31431000     5.80000000
   78.83928000     3.31131000     4.00000000
   78.83945000     3.30832000     4.50000000
   78.83964000     3.30528000     3.70000000
   78.83984000     3.30223000     6.00000000
   78.84004000     3.29918000     7.00000000
   78.84024000     3.29613000     8.20000000
   78.84044000     3.29309000     5.00000000
   78.84064000     3.29004000     4.80000000
   78.84084000     3.28699000     3.20000000
   78.84143000     3.27785000     4.20000000
   78.84163000     3.27484000     4.00000000
   78.84183000     3.27182000     6.80000000
   78.84203000     3.26881000     8.20000000
   78.84223000     3.26580000     7.50000000
   78.84303000     3.25374000     6.80000000
   78.84322000     3.25073000     4.70000000
   78.84342000     3.24772000     5.50000000
   78.84359000     3.24470000     5.80000000
   78.84376000     3.24168000     2.50000000
   78.84393000     3.23865000     5.00000000
   78.84409000     3.23563000     2.20000000
   78.84426000     3.23261000     4.20000000
   78.84443000     3.22959000     6.20000000
   78.84459000     3.22657000     5.00000000
   78.84476000     3.22355000     4.70000000
   78.84493000     3.22053000     2.30000000
   78.84510000     3.21750000     4.50000000
   78.84528000     3.21449000     6.50000000
   78.84546000     3.21148000     5.70000000
   78.84564000     3.20846000     8.20000000
   78.84582000     3.20545000     4.00000000
   78.84600000     3.20244000     6.00000000
   78.84618000     3.19942000     7.50000000
   78.84637000     3.19641000     7.70000000
   78.84655000     3.19340000     7.70000000
   78.84673000     3.19038000     3.30000000
   78.84691000     3.18737000     5.70000000
   78.84711000     3.18436000     6.20000000
   78.84731000     3.18134000     6.70000000
   78.84751000     3.17833000     7.70000000
   78.84771000     3.17532000     6.20000000
   78.84791000     3.17230000     6.70000000
   78.84811000     3.16929000     6.30000000
   78.84832000     3.16628000     6.80000000
   78.84852000     3.16326000     4.30000000
   78.84872000     3.16025000     5.80000000
   78.84892000     3.15724000     8.20000000
   78.84912000     3.15421000     7.50000000
   78.84933000     3.15118000     7.00000000
   78.84954000     3.14816000     4.50000000
   78.84995000     3.14210000     3.80000000
   78.85015000     3.13908000     2.20000000
   78.85036000     3.13605000     5.20000000
   78.85057000     3.13302000     6.80000000
   78.85077000     3.12999000     4.20000000
   78.85098000     3.12697000     3.70000000
   78.85117000     3.12394000     5.50000000
   78.85136000     3.12092000     2.30000000
   78.85156000     3.11790000     1.00000000
   78.85175000     3.11488000     0.70000000
   78.85195000     3.11186000     2.00000000
   78.85214000     3.10884000     1.70000000
   78.85233000     3.10582000    -1.40000000
   78.85272000     3.09977000    -2.90000000
   78.85292000     3.09675000    -1.80000000
   78.85301000     3.09377000    -2.90000000
   78.85311000     3.09078000    -0.40000000
   78.85320000     3.08780000    -0.70000000
   78.85330000     3.08481000    -1.50000000
   78.85339000     3.08183000    -5.90000000
   78.85368000     3.07288000    -6.70000000
   78.85377000     3.06989000    -6.90000000
   78.85387000     3.06691000    -8.00000000
   78.85397000     3.06392000    -7.40000000
   78.85406000     3.06093000    -7.90000000
   78.85416000     3.05794000    -9.50000000
   78.85425000     3.05495000    -9.80000000
   78.85435000     3.05196000   -10.00000000
   78.85445000     3.04897000   -13.30000000
   78.85454000     3.04598000   -15.70000000
   78.85464000     3.04299000   -16.40000000
   78.85474000     3.04000000   -14.50000000
   78.85483000     3.03701000   -16.20000000
   78.85493000     3.03397000   -14.40000000
   78.85503000     3.03093000   -15.40000000
   78.85514000     3.02788000   -15.90000000
   78.85524000     3.02484000   -17.70000000
   78.85534000     3.02180000   -18.20000000
   78.85544000     3.01875000   -18.70000000
   78.85554000     3.01571000   -17.40000000
   78.85564000     3.01267000   -18.40000000
   78.85574000     3.00962000   -19.60000000
   78.85585000     3.00658000   -21.40000000
   78.85595000     3.00358000   -23.40000000
   78.85605000     3.00059000   -23.70000000
   78.85615000     2.99759000   -25.10000000
   78.85625000     2.99460000   -24.90000000
   78.85636000     2.99160000   -26.20000000
   78.85646000     2.98861000   -23.90000000
   78.85656000     2.98561000   -26.60000000
   78.85666000     2.98262000   -26.40000000
   78.85677000     2.97962000   -27.70000000
   78.85697000     2.97360000   -26.90000000
   78.85707000     2.97058000   -25.40000000
   78.85717000     2.96755000   -26.70000000
   78.85727000     2.96452000   -27.90000000
   78.85738000     2.96150000   -29.90000000
   78.85748000     2.95847000   -29.70000000
   78.85758000     2.95545000   -28.20000000
   78.85768000     2.95242000   -29.90000000
   78.85778000     2.94939000   -28.70000000
   78.85792000     2.94337000   -27.70000000
   78.85796000     2.94038000   -27.60000000
   78.85799000     2.93739000   -27.40000000
   78.85803000     2.93439000   -28.20000000
   78.85797000     2.90747000   -27.60000000
   78.85788000     2.90448000   -26.70000000
   78.85779000     2.90149000   -24.40000000
   78.85770000     2.89850000   -25.40000000
   78.85761000     2.89551000   -27.20000000
   78.85743000     2.88953000   -24.40000000
   78.85734000     2.88654000   -24.70000000
   78.85725000     2.88356000   -25.90000000
   78.85717000     2.88058000   -27.60000000
   78.85708000     2.87760000   -25.40000000
   78.85700000     2.87463000   -23.90000000
   78.85691000     2.87165000   -24.70000000
   78.85683000     2.86867000   -25.20000000
   78.85674000     2.86569000   -25.70000000
   78.85665000     2.86271000   -25.20000000
   78.85657000     2.85973000   -26.10000000
   78.85648000     2.85675000   -24.90000000
   78.85619000     2.84768000   -24.60000000
   78.85610000     2.84465000   -25.10000000
   78.85600000     2.84163000   -24.90000000
   78.85590000     2.83860000   -25.40000000
   78.85581000     2.83557000   -26.70000000
   78.85571000     2.83255000   -23.20000000
   78.85561000     2.82952000   -24.60000000
   78.85552000     2.82650000   -27.90000000
   78.85545000     2.82356000   -25.90000000
   78.85537000     2.82062000   -28.20000000
   78.85530000     2.81767000   -27.20000000
   78.85523000     2.81473000   -29.40000000
   78.85516000     2.81179000   -28.40000000
   78.85508000     2.80885000   -26.40000000
   78.85501000     2.80591000   -24.90000000
   78.85494000     2.80297000   -26.60000000
   78.85487000     2.80003000   -28.70000000
   78.85480000     2.79709000   -26.90000000
   78.85472000     2.79410000   -25.10000000
   78.85458000     2.78813000   -25.60000000
   78.85451000     2.78514000   -23.70000000
   78.85444000     2.78215000   -24.20000000
   78.85436000     2.77916000   -22.70000000
   78.85429000     2.77617000   -23.20000000
   78.85422000     2.77318000   -23.20000000
   78.85394000     2.76140000   -19.10000000
   78.85387000     2.75850000   -18.90000000
   78.85380000     2.75561000   -16.60000000
   78.85373000     2.75271000   -15.40000000
   78.85367000     2.74981000   -15.70000000
   78.85360000     2.74691000   -11.40000000
   78.85353000     2.74401000   -12.40000000
   78.85346000     2.74111000   -11.80000000
   78.85339000     2.73821000   -11.20000000
   78.85331000     2.73520000    -6.90000000
   78.85322000     2.73219000    -7.90000000
   78.85314000     2.72918000    -6.20000000
   78.85305000     2.72616000    -1.20000000
   78.85297000     2.72315000    -1.20000000
   78.85288000     2.72014000     0.20000000
   78.85271000     2.71411000     2.50000000
   78.85263000     2.71110000     3.80000000
   78.85254000     2.70809000     3.80000000
   78.85247000     2.70510000     5.80000000
   78.85239000     2.70212000     6.00000000
   78.85231000     2.69913000     7.80000000
   78.85224000     2.69615000     9.80000000
   78.85216000     2.69316000    10.30000000
   78.85209000     2.69017000     9.80000000
   78.85201000     2.68719000    11.00000000
   78.85194000     2.68420000     9.80000000
   78.85186000     2.68122000    11.40000000
   78.85179000     2.67823000    11.80000000
   78.85173000     2.67528000    14.60000000
   78.85167000     2.67232000    13.10000000
   78.85154000     2.66641000    10.80000000
   78.85148000     2.66346000    12.90000000
   78.85142000     2.66050000     8.90000000
   78.85136000     2.65755000     8.20000000
   78.85130000     2.65459000    11.80000000
   78.85124000     2.65164000    12.30000000
   78.85118000     2.64868000    10.50000000
   78.85115000     2.64570000     9.70000000
   78.85111000     2.64273000    10.40000000
   78.85107000     2.63975000     8.00000000
   78.85103000     2.63677000     7.20000000
   78.85096000     2.63082000     4.00000000
   78.85092000     2.62784000     5.30000000
   78.85088000     2.62487000     5.70000000
   78.85085000     2.62189000     3.70000000
   78.85081000     2.61891000     0.70000000
   78.85075000     2.61594000     2.20000000
   78.85070000     2.61297000     2.70000000
   78.85065000     2.61000000     3.00000000
   78.85059000     2.60703000     0.30000000
   78.85054000     2.60405000     0.70000000
   78.85048000     2.60108000     0.80000000
   78.85043000     2.59811000    -0.20000000
   78.85037000     2.59514000     1.00000000
   78.85032000     2.59216000     0.70000000
   78.85026000     2.58919000    -2.50000000
   78.85014000     2.58317000    -1.40000000
   78.85008000     2.58015000    -1.50000000
   78.85002000     2.57714000    -0.40000000
   78.84996000     2.57412000     1.20000000
   78.84990000     2.57111000     0.70000000
   78.84983000     2.56810000    -0.30000000
   78.84977000     2.56508000     0.50000000
   78.84965000     2.55905000    -0.80000000
   78.84958000     2.55608000    -1.80000000
   78.84952000     2.55311000    -3.80000000
   78.84945000     2.55013000    -2.40000000
   78.84939000     2.54716000     1.50000000
   78.84932000     2.54418000     0.20000000
   78.84925000     2.54121000    -0.40000000
   78.84919000     2.53824000    -3.90000000
   78.84912000     2.53526000    -2.20000000
   78.84906000     2.53229000    -0.30000000
   78.84899000     2.52931000     0.50000000
   78.84885000     2.52325000     1.70000000
   78.84878000     2.52022000     1.30000000
   78.84864000     2.51415000     1.70000000
   78.84858000     2.51112000     1.20000000
   78.84851000     2.50809000     0.20000000
   78.84844000     2.50506000    -1.90000000
   78.84837000     2.50202000    -0.40000000
   78.84830000     2.49899000    -2.50000000
   78.84823000     2.49602000    -0.80000000
   78.84810000     2.49008000    -0.90000000
   78.84804000     2.48711000    -0.50000000
   78.84797000     2.48413000     0.10000000
   78.84790000     2.48116000    -0.70000000
   78.84784000     2.47819000    -1.70000000
   78.84777000     2.47522000    -0.40000000
   78.84771000     2.47225000     1.50000000
   78.84756000     2.46628000     2.20000000
   78.84747000     2.46328000     2.70000000
   78.84739000     2.46028000     0.30000000
   78.84730000     2.45728000    -1.90000000
   78.84722000     2.45428000    -2.40000000
   78.84713000     2.45128000     2.50000000
   78.84705000     2.44828000     4.20000000
   78.84696000     2.44528000     2.30000000
   78.84688000     2.44228000     3.80000000
   78.84640000     2.42441000    -2.50000000
   78.84632000     2.42144000    -0.90000000
   78.84624000     2.41847000    -1.30000000
   78.84617000     2.41549000     2.30000000
   78.84609000     2.41252000     2.80000000
   78.84601000     2.40955000     1.70000000
   78.84594000     2.40654000     1.20000000
   78.84588000     2.40352000    -0.70000000
   78.84576000     2.39748000    -2.70000000
   78.84570000     2.39447000     2.00000000
   78.84563000     2.39145000     0.80000000
   78.84557000     2.38843000     1.30000000
   78.84551000     2.38542000     0.10000000
   78.84539000     2.37938000    -0.90000000
   78.84529000     2.37637000    -2.20000000
   78.84500000     2.36735000    -1.20000000
   78.84490000     2.36434000    -1.90000000
   78.84480000     2.36133000    -2.00000000
   78.84471000     2.35832000    -1.40000000
   78.84461000     2.35531000    -3.50000000
   78.84451000     2.35230000    -1.80000000
   78.84442000     2.34929000    -3.40000000
   78.84431000     2.34626000    -4.90000000
   78.84420000     2.34324000    -5.30000000
   78.84409000     2.34021000    -4.80000000
   78.84398000     2.33719000    -4.40000000
   78.84387000     2.33416000    -4.90000000
   78.84376000     2.33114000    -4.90000000
   78.84354000     2.32508000    -7.90000000
   78.84343000     2.32206000    -7.90000000
   78.84333000     2.31903000    -7.30000000
   78.84322000     2.31604000    -7.20000000
   78.84311000     2.31304000    -6.90000000
   78.84300000     2.31004000    -8.40000000
   78.84289000     2.30704000    -8.20000000
   78.84268000     2.30105000    -5.80000000
   78.84257000     2.29805000    -8.50000000
   78.84246000     2.29505000    -8.50000000
   78.84236000     2.29205000    -7.70000000
   78.84225000     2.28906000    -8.40000000
   78.84213000     2.28607000    -8.40000000
   78.84176000     2.27709000    -9.50000000
   78.84163000     2.27410000   -10.70000000
   78.84151000     2.27111000   -10.40000000
   78.84138000     2.26812000   -10.40000000
   78.84126000     2.26513000   -10.30000000
   78.84114000     2.26214000    -9.90000000
   78.84101000     2.25915000   -12.50000000
   78.84090000     2.25614000   -13.30000000
   78.84079000     2.25312000   -12.90000000
   78.84068000     2.25011000   -11.40000000
   78.84024000     2.23805000   -17.20000000
   78.84013000     2.23504000   -15.30000000
   78.84002000     2.23202000   -13.50000000
   78.83992000     2.22901000   -13.00000000
   78.83981000     2.22602000   -17.90000000
   78.83970000     2.22304000   -15.90000000
   78.83959000     2.22005000   -16.10000000
   78.83926000     2.21110000   -16.90000000
   78.83915000     2.20812000   -16.90000000
   78.83904000     2.20514000   -16.40000000
   78.83893000     2.20215000   -16.90000000
   78.83873000     2.19618000   -18.20000000
   78.83863000     2.19318000   -17.20000000
   78.83854000     2.19019000   -18.70000000
   78.83844000     2.18720000   -19.10000000
   78.83834000     2.18420000   -20.20000000
   78.83825000     2.18121000   -18.90000000
   78.83805000     2.17523000   -17.90000000
   78.83796000     2.17223000   -16.10000000
   78.83786000     2.16924000   -16.20000000
   78.83774000     2.16623000   -17.20000000
   78.83761000     2.16323000   -17.90000000
   78.83749000     2.16022000   -19.70000000
   78.83736000     2.15721000   -18.90000000
   78.83724000     2.15421000   -18.20000000
   78.83711000     2.15120000   -18.40000000
   78.83699000     2.14819000   -20.40000000
   78.83686000     2.14518000   -21.10000000
   78.83674000     2.14218000   -18.40000000
   78.83661000     2.13917000   -18.10000000
   78.83650000     2.13619000   -21.20000000
   78.83640000     2.13321000   -19.70000000
   78.83629000     2.13023000   -19.60000000
   78.83619000     2.12725000   -19.20000000
   78.83608000     2.12428000   -20.90000000
   78.83577000     2.11534000   -20.40000000
   78.83566000     2.11236000   -20.90000000
   78.83556000     2.10938000   -21.60000000
   78.83544000     2.10636000   -21.90000000
   78.83532000     2.10333000   -22.70000000
   78.83520000     2.10030000   -22.90000000
   78.83508000     2.09727000   -23.40000000
   78.83496000     2.09425000   -21.90000000
   78.83484000     2.09122000   -20.40000000
   78.83460000     2.08516000   -20.20000000
   78.83448000     2.08213000   -20.20000000
   78.83424000     2.07609000   -20.60000000
   78.83375000     2.06404000   -19.90000000
   78.83363000     2.06103000   -19.40000000
   78.83351000     2.05802000   -18.70000000
   78.83338000     2.05501000   -19.10000000
   78.83326000     2.05199000   -19.20000000
   78.83314000     2.04898000   -19.90000000
   78.83284000     2.03993000   -21.90000000
   78.83274000     2.03692000   -22.40000000
   78.83264000     2.03390000   -20.90000000
   78.83254000     2.03089000   -21.40000000
   78.83244000     2.02787000   -21.20000000
   78.83234000     2.02486000   -23.10000000
   78.83224000     2.02184000   -21.70000000
   78.83214000     2.01883000   -23.40000000
   78.83212000     2.01575000   -23.40000000
   78.83211000     2.01266000   -22.90000000
   78.83209000     2.00957000   -25.70000000
   78.83208000     2.00649000   -24.90000000
   78.83206000     2.00340000   -26.70000000
   78.83205000     2.00031000   -27.40000000
   78.83204000     1.99722000   -26.60000000
   78.83202000     1.99414000   -26.20000000
   78.83201000     1.99105000   -25.70000000
   78.83199000     1.98796000   -27.20000000
   78.83192000     1.98193000   -28.60000000
   78.83184000     1.97591000   -28.20000000
   78.83180000     1.97289000   -28.60000000
   78.83176000     1.96988000   -30.10000000
   78.83172000     1.96686000   -25.70000000
   78.83168000     1.96385000   -26.20000000
   78.83164000     1.96083000   -26.90000000
   78.83160000     1.95782000   -26.90000000
   78.83160000     1.95483000   -29.60000000
   78.83160000     1.95185000   -31.70000000
   78.83160000     1.94887000   -30.20000000
   78.83160000     1.94588000   -27.70000000
   78.83160000     1.94290000   -28.20000000
   78.83160000     1.93992000   -28.90000000
   78.83160000     1.93694000   -27.40000000
   78.83160000     1.93395000   -31.20000000
   78.83161000     1.93097000   -28.40000000
   78.83161000     1.92799000   -30.90000000
   78.83163000     1.92495000   -29.40000000
   78.83166000     1.92190000   -34.70000000
   78.83169000     1.91885000   -30.90000000
   78.83172000     1.91581000   -32.20000000
   78.83175000     1.91276000   -34.60000000
   78.83177000     1.90971000   -34.70000000
   78.83180000     1.90667000   -32.70000000
   78.83183000     1.90362000   -31.90000000
   78.83186000     1.90057000   -31.20000000
   78.83189000     1.89753000   -32.60000000
   78.83193000     1.89452000   -32.60000000
   78.83197000     1.89152000   -32.40000000
   78.83201000     1.88851000   -34.10000000
   78.83205000     1.88550000   -30.90000000
   78.83209000     1.88250000   -29.10000000
   78.83212000     1.87949000   -30.90000000
   78.83216000     1.87648000   -29.90000000
   78.83220000     1.87348000   -28.40000000
   78.83224000     1.87047000   -29.20000000
   78.83228000     1.86747000   -27.60000000
   78.83231000     1.86444000   -28.60000000
   78.83233000     1.86142000   -31.20000000
   78.83235000     1.85840000   -29.10000000
   78.83238000     1.85537000   -27.20000000
   78.83240000     1.85235000   -30.10000000
   78.83242000     1.84933000   -32.10000000
   78.83244000     1.84631000   -30.20000000
   78.83247000     1.84328000   -29.10000000
   78.83249000     1.84026000   -28.90000000
   78.83251000     1.83724000   -28.10000000
   78.83256000     1.83421000   -28.70000000
   78.83260000     1.83118000   -30.20000000
   78.83264000     1.82815000   -32.20000000
   78.83269000     1.82512000   -31.20000000
   78.83273000     1.82209000   -31.70000000
   78.83278000     1.81906000   -30.70000000
   78.83282000     1.81603000   -29.70000000
   78.83287000     1.81300000   -28.40000000
   78.83291000     1.80997000   -29.40000000
   78.83295000     1.80694000   -28.70000000
   78.83300000     1.80392000   -29.90000000
   78.83304000     1.80089000   -32.70000000
   78.83309000     1.79787000   -32.70000000
   78.83313000     1.79485000   -30.90000000
   78.83318000     1.79182000   -31.60000000
   78.83322000     1.78880000   -32.20000000
   78.83327000     1.78577000   -33.40000000
   78.83331000     1.78275000   -32.40000000
   78.83335000     1.77972000   -35.60000000
   78.83340000     1.77670000   -35.40000000
   78.83344000     1.77373000   -34.20000000
   78.83349000     1.77076000   -33.20000000
   78.83353000     1.76779000   -33.60000000
   78.83358000     1.76483000   -33.40000000
   78.83362000     1.76186000   -33.70000000
   78.83367000     1.75889000   -33.90000000
   78.83371000     1.75592000   -32.20000000
   78.83376000     1.75295000   -32.70000000
   78.83380000     1.74998000   -34.40000000
   78.83385000     1.74702000   -34.40000000
   78.83389000     1.74405000   -34.40000000
   78.83393000     1.74109000   -33.40000000
   78.83396000     1.73812000   -33.10000000
   78.83400000     1.73516000   -34.20000000
   78.83404000     1.73219000   -33.90000000
   78.83408000     1.72923000   -33.90000000
   78.83412000     1.72626000   -36.10000000
   78.83416000     1.72330000   -32.90000000
   78.83420000     1.72033000   -35.60000000
   78.83424000     1.71737000   -34.90000000
   78.83428000     1.71441000   -34.40000000
   78.83433000     1.71144000   -33.70000000
   78.83438000     1.70848000   -33.10000000
   78.83443000     1.70552000   -32.90000000
   78.83448000     1.70255000   -33.90000000
   78.83453000     1.69959000   -31.20000000
   78.83458000     1.69663000   -33.10000000
   78.83463000     1.69366000   -33.70000000
   78.83477000     1.68182000   -32.90000000
   78.83480000     1.67886000   -33.90000000
   78.83482000     1.67590000   -32.10000000
   78.83485000     1.67294000   -34.10000000
   78.83487000     1.66998000   -32.20000000
   78.83502000     1.65221000   -24.90000000
   78.83505000     1.64923000   -25.60000000
   78.83508000     1.64626000   -25.70000000
   78.83510000     1.64329000   -22.90000000
   78.83513000     1.64032000   -22.20000000
   78.83516000     1.63735000   -23.20000000
   78.83519000     1.63438000   -22.70000000
   78.83527000     1.62543000   -20.10000000
   78.83530000     1.62242000   -18.90000000
   78.83533000     1.61941000   -18.10000000
   78.83535000     1.61640000   -19.40000000
   78.83538000     1.61339000   -22.70000000
   78.83543000     1.60738000   -23.10000000
   78.83546000     1.60437000   -20.20000000
   78.83549000     1.60136000   -19.10000000
   78.83551000     1.59835000   -19.70000000
   78.83553000     1.59529000   -16.20000000
   78.83555000     1.59224000   -21.20000000
   78.83558000     1.58918000   -21.40000000
   78.83560000     1.58612000   -20.20000000
   78.83562000     1.58307000   -18.70000000
   78.83564000     1.58001000   -19.90000000
   78.83566000     1.57695000   -16.90000000
   78.83568000     1.57390000   -17.20000000
   78.83570000     1.57084000   -16.20000000
   78.83573000     1.56779000   -17.90000000
   78.83574000     1.56480000   -21.60000000
   78.83577000     1.55884000   -21.60000000
   78.83579000     1.55586000   -20.60000000
   78.83581000     1.55288000   -19.70000000
   78.83582000     1.54990000   -21.20000000
   78.83584000     1.54692000   -24.20000000
   78.83585000     1.54394000   -27.90000000
   78.83587000     1.54096000   -28.70000000
   78.83588000     1.53798000   -29.40000000
   78.83589000     1.53502000   -26.20000000
   78.83589000     1.53207000   -24.60000000
   78.83589000     1.52911000   -26.40000000
   78.83589000     1.52615000   -28.20000000
   78.83589000     1.52320000   -27.90000000
   78.83589000     1.52024000   -28.40000000
   78.83589000     1.51433000   -29.40000000
   78.83589000     1.51137000   -29.70000000
   78.83589000     1.50842000   -32.40000000
   78.83590000     1.50549000   -31.70000000
   78.83591000     1.50257000   -33.90000000
   78.83592000     1.49965000   -32.20000000
   78.83593000     1.49673000   -33.60000000
   78.83595000     1.49089000   -32.40000000
   78.83596000     1.48797000   -32.70000000
   78.83597000     1.48505000   -33.70000000
   78.83598000     1.48213000   -33.20000000
   78.83599000     1.47921000   -33.70000000
   78.83601000     1.47338000   -36.70000000
   78.83602000     1.47046000   -36.90000000
   78.83604000     1.46754000   -36.70000000
   78.83608000     1.45587000   -38.70000000
   78.83609000     1.45295000   -41.70000000
   78.83610000     1.45004000   -39.60000000
   78.83611000     1.44705000   -35.60000000
   78.83611000     1.44406000   -36.70000000
   78.83612000     1.44107000   -37.90000000
   78.83612000     1.43808000   -35.40000000
   78.83613000     1.43509000   -36.60000000
   78.83613000     1.43210000   -39.90000000
   78.83614000     1.42911000   -35.40000000
   78.83614000     1.42612000   -33.40000000
   78.83615000     1.42313000   -36.60000000
   78.83615000     1.42014000   -36.40000000
   78.83615000     1.41717000   -37.60000000
   78.83615000     1.41420000   -34.20000000
   78.83615000     1.41123000   -33.90000000
   78.83615000     1.40826000   -35.10000000
   78.83615000     1.40529000   -34.60000000
   78.83615000     1.40232000   -36.60000000
   78.83615000     1.39935000   -35.10000000
   78.83615000     1.39638000   -33.10000000
   78.83615000     1.39341000   -34.60000000
   78.83615000     1.39044000   -36.90000000
   78.83613000     1.38748000   -38.10000000
   78.83610000     1.38451000   -36.10000000
   78.83608000     1.38155000   -36.70000000
   78.83606000     1.37858000   -34.90000000
   78.83603000     1.37562000   -34.40000000
   78.83601000     1.37265000   -34.20000000
   78.83598000     1.36969000   -36.40000000
   78.83596000     1.36672000   -40.40000000
   78.83593000     1.36376000   -39.70000000
   78.83591000     1.36079000   -37.90000000
   78.83579000     1.35489000   -38.40000000
   78.83573000     1.35194000   -39.10000000
   78.83567000     1.34899000   -39.20000000
   78.83561000     1.34604000   -39.20000000
   78.83555000     1.34309000   -38.40000000
   78.83549000     1.34014000   -40.40000000
   78.83543000     1.33719000   -38.40000000
   78.83531000     1.33129000   -37.70000000
   78.83525000     1.32832000   -38.60000000
   78.83519000     1.32535000   -38.40000000
   78.83513000     1.32237000   -38.70000000
   78.83507000     1.31940000   -40.10000000
   78.83501000     1.31643000   -39.70000000
   78.83495000     1.31346000   -40.10000000
   78.83483000     1.30751000   -40.40000000
   78.83477000     1.30454000   -40.70000000
   78.83450000     1.29260000   -40.90000000
   78.83444000     1.28961000   -41.70000000
   78.83437000     1.28663000   -37.20000000
   78.83430000     1.28364000   -37.90000000
   78.83423000     1.28065000   -37.70000000
   78.83417000     1.27766000   -38.20000000
   78.83410000     1.27467000   -37.70000000
   78.83403000     1.27168000   -38.40000000
   78.83395000     1.26867000   -37.70000000
   78.83372000     1.25965000   -41.70000000
   78.83364000     1.25664000   -37.70000000
   78.83356000     1.25363000   -36.60000000
   78.83349000     1.25062000   -37.90000000
   78.83341000     1.24761000   -42.40000000
   78.83325000     1.24160000   -38.10000000
   78.83323000     1.23861000   -36.40000000
   78.83320000     1.23562000   -39.10000000
   78.83317000     1.23263000   -38.10000000
   78.83315000     1.22965000   -39.70000000
   78.83312000     1.22666000   -39.10000000
   78.83309000     1.22367000   -37.20000000
   78.83307000     1.22069000   -37.40000000
   78.83304000     1.21770000   -37.70000000
   78.83302000     1.21471000   -39.90000000
   78.83299000     1.21172000   -38.60000000
   78.83298000     1.20868000   -36.40000000
   78.83296000     1.20562000   -38.20000000
   78.83295000     1.20257000   -36.20000000
   78.83294000     1.19952000   -36.70000000
   78.83293000     1.19647000   -34.40000000
   78.83292000     1.19342000   -34.40000000
   78.83291000     1.19037000   -35.20000000
   78.83290000     1.18731000   -37.40000000
   78.83287000     1.18121000   -37.70000000
   78.83287000     1.17821000   -36.40000000
   78.83286000     1.17520000   -37.70000000
   78.83286000     1.17220000   -36.60000000
   78.83285000     1.16920000   -36.70000000
   78.83285000     1.16319000   -34.40000000
   78.83284000     1.16019000   -34.40000000
   78.83284000     1.15718000   -35.40000000
   78.83283000     1.15418000   -36.40000000
   78.83283000     1.15118000   -35.90000000
   78.83284000     1.14816000   -37.70000000
   78.83286000     1.14211000   -36.70000000
   78.83287000     1.13909000   -33.40000000
   78.83288000     1.13607000   -35.70000000
   78.83289000     1.13305000   -32.70000000
   78.83290000     1.13003000   -33.90000000
   78.83291000     1.12701000   -35.40000000
   78.83292000     1.12399000   -34.40000000
   78.83293000     1.12096000   -35.40000000
   78.83292000     1.11493000   -34.70000000
   78.83292000     1.11192000   -34.20000000
   78.83291000     1.10890000   -33.60000000
   78.83290000     1.10589000   -33.60000000
   78.83290000     1.10287000   -35.70000000
   78.83289000     1.09986000   -34.40000000
   78.83289000     1.09684000   -32.10000000
   78.83288000     1.09383000   -31.90000000
   78.83287000     1.09081000   -33.90000000
   78.83283000     1.08778000   -32.40000000
   78.83279000     1.08475000   -31.20000000
   78.83274000     1.08172000   -32.20000000
   78.83270000     1.07869000   -32.40000000
   78.83265000     1.07565000   -35.20000000
   78.83261000     1.07262000   -34.70000000
   78.83256000     1.06959000   -31.10000000
   78.83252000     1.06656000   -33.70000000
   78.83247000     1.06353000   -31.90000000
   78.83243000     1.06049000   -30.20000000
   78.83240000     1.05752000   -30.60000000
   78.83237000     1.05455000   -29.90000000
   78.83234000     1.05157000   -33.70000000
   78.83231000     1.04860000   -33.90000000
   78.83228000     1.04563000   -31.10000000
   78.83225000     1.04266000   -30.40000000
   78.83222000     1.03968000   -31.20000000
   78.83219000     1.03671000   -31.10000000
   78.83216000     1.03374000   -30.60000000
   78.83213000     1.03076000   -30.20000000
   78.83209000     1.02775000   -30.20000000
   78.83204000     1.02472000   -30.60000000
   78.83200000     1.02170000   -31.60000000
   78.83196000     1.01868000   -29.70000000
   78.83192000     1.01566000   -31.20000000
   78.83180000     1.00660000   -30.40000000
   78.83175000     1.00357000   -28.90000000
   78.83171000     1.00055000   -28.90000000
   78.83168000     0.99756000   -27.90000000
   78.83165000     0.99457000   -28.40000000
   78.83162000     0.99157000   -28.90000000
   78.83159000     0.98858000   -28.20000000
   78.83156000     0.98559000   -28.20000000
   78.83153000     0.98259000   -26.90000000
   78.83150000     0.97960000   -26.90000000
   78.83147000     0.97661000   -28.40000000
   78.83144000     0.97361000   -26.40000000
   78.83142000     0.97062000   -28.40000000
   78.83135000     0.96466000   -28.40000000
   78.83129000     0.95871000   -27.40000000
   78.83126000     0.95573000   -28.20000000
   78.83123000     0.95276000   -29.20000000
   78.83117000     0.94680000   -27.70000000
   78.83113000     0.94383000   -28.90000000
   78.83110000     0.94085000   -28.10000000
   78.83106000     0.93790000   -27.70000000
   78.83101000     0.93495000   -29.10000000
   78.83087000     0.92611000   -31.10000000
   78.83082000     0.92316000   -30.70000000
   78.83077000     0.92021000   -28.20000000
   78.83073000     0.91727000   -29.20000000
   78.83068000     0.91432000   -27.90000000
   78.83063000     0.91137000   -26.90000000
   78.83051000     0.90834000   -29.60000000
   78.83026000     0.90226000   -29.20000000
   78.83014000     0.89922000   -29.20000000
   78.83001000     0.89618000   -29.20000000
   78.82989000     0.89314000   -28.20000000
   78.82951000     0.88402000   -30.90000000
   78.82939000     0.88099000   -29.70000000
   78.82911000     0.87494000   -30.10000000
   78.82898000     0.87191000   -30.10000000
   78.82884000     0.86889000   -30.10000000
   78.82857000     0.86284000   -30.90000000
   78.82844000     0.85982000   -30.70000000
   78.82830000     0.85679000   -31.70000000
   78.82788000     0.84772000   -31.40000000
   78.82773000     0.84470000   -32.10000000
   78.82744000     0.83865000   -31.60000000
   78.82700000     0.82958000   -31.20000000
   78.82685000     0.82656000   -31.90000000
   78.82670000     0.82353000   -31.20000000
   78.82656000     0.82051000   -30.90000000
   78.82642000     0.81746000   -29.70000000
   78.82628000     0.81442000   -29.60000000
   78.82614000     0.81137000   -30.20000000
   78.82600000     0.80832000   -31.40000000
   78.82586000     0.80527000   -32.60000000
   78.82572000     0.80223000   -32.70000000
   78.82558000     0.79918000   -31.40000000
   78.82544000     0.79613000   -30.40000000
   78.82530000     0.79309000   -29.40000000
   78.82516000     0.79004000   -29.90000000
   78.82503000     0.78701000   -31.10000000
   78.82466000     0.77792000   -31.70000000
   78.82453000     0.77490000   -33.90000000
   78.82441000     0.77187000   -33.20000000
   78.82428000     0.76884000   -32.40000000
   78.82391000     0.75975000   -33.90000000
   78.82377000     0.75673000   -33.90000000
   78.82363000     0.75371000   -31.70000000
   78.82349000     0.75070000   -29.70000000
   78.82335000     0.74768000   -29.40000000
   78.82321000     0.74466000   -30.70000000
   78.82280000     0.73560000   -31.10000000
   78.82266000     0.73258000   -31.90000000
   78.82252000     0.72956000   -30.20000000
   78.82241000     0.72652000   -30.70000000
   78.82230000     0.72349000   -30.60000000
   78.82219000     0.72045000   -32.70000000
   78.82208000     0.71741000   -31.20000000
   78.82197000     0.71437000   -31.40000000
   78.82186000     0.71133000   -31.70000000
   78.82175000     0.70829000   -32.70000000
   78.82164000     0.70526000   -31.40000000
   78.82153000     0.70222000   -33.20000000
   78.82142000     0.69918000   -33.10000000
   78.82140000     0.69619000   -33.10000000
   78.82138000     0.69320000   -31.90000000
   78.82133000     0.68722000   -30.90000000
   78.82131000     0.68422000   -31.60000000
   78.82128000     0.68123000   -33.70000000
   78.82126000     0.67824000   -33.40000000
   78.82122000     0.67226000   -36.20000000
   78.82119000     0.66927000   -33.70000000
   78.82117000     0.66624000   -32.20000000
   78.82115000     0.66320000   -31.20000000
   78.82113000     0.66016000   -32.10000000
   78.82110000     0.65712000   -31.90000000
   78.82108000     0.65409000   -33.90000000
   78.82106000     0.65105000   -32.60000000
   78.82104000     0.64801000   -31.20000000
   78.82102000     0.64498000   -31.70000000
   78.82099000     0.64194000   -33.90000000
   78.82090000     0.62707000   -32.70000000
   78.82088000     0.62411000   -31.60000000
   78.82087000     0.62115000   -34.10000000
   78.82085000     0.61820000   -32.90000000
   78.82083000     0.61524000   -34.20000000
   78.82081000     0.61228000   -35.10000000
   78.82080000     0.60932000   -33.10000000
   78.82075000     0.60631000   -33.40000000
   78.82069000     0.60329000   -33.70000000
   78.82064000     0.60028000   -33.70000000
   78.82059000     0.59726000   -36.40000000
   78.82049000     0.59123000   -38.40000000
   78.82043000     0.58822000   -33.90000000
   78.82038000     0.58520000   -33.60000000
   78.82033000     0.58219000   -35.60000000
   78.82028000     0.57917000   -33.70000000
   78.82017000     0.57613000   -34.20000000
   78.82007000     0.57308000   -35.60000000
   78.81997000     0.57004000   -36.70000000
   78.81987000     0.56699000   -34.20000000
   78.81977000     0.56394000   -34.60000000
   78.81966000     0.56090000   -35.40000000
   78.81956000     0.55785000   -36.20000000
   78.81946000     0.55481000   -36.60000000
   78.81925000     0.54871000   -36.60000000
   78.81916000     0.54570000   -36.90000000
   78.81906000     0.54269000   -34.70000000
   78.81896000     0.53969000   -34.60000000
   78.81886000     0.53668000   -33.70000000
   78.81877000     0.53367000   -35.90000000
   78.81847000     0.52464000   -36.70000000
   78.81837000     0.52163000   -36.70000000
   78.81828000     0.51862000   -33.90000000
   78.81817000     0.51559000   -33.70000000
   78.81807000     0.51256000   -32.90000000
   78.81796000     0.50953000   -34.90000000
   78.81786000     0.50649000   -35.90000000
   78.81775000     0.50346000   -34.70000000
   78.81765000     0.50043000   -33.70000000
   78.81754000     0.49739000   -33.70000000
   78.81744000     0.49436000   -32.90000000
   78.81733000     0.49133000   -33.40000000
   78.81723000     0.48830000   -34.70000000
   78.81694000     0.47916000   -35.60000000
   78.81684000     0.47611000   -34.90000000
   78.81674000     0.47307000   -32.70000000
   78.81665000     0.47002000   -34.40000000
   78.81655000     0.46698000   -35.20000000
   78.81646000     0.46393000   -34.20000000
   78.81636000     0.46088000   -34.40000000
   78.81626000     0.45784000   -37.70000000
   78.81616000     0.45480000   -37.70000000
   78.81605000     0.45175000   -34.40000000
   78.81594000     0.44871000   -34.90000000
   78.81584000     0.44567000   -36.20000000
   78.81573000     0.44262000   -37.20000000
   78.81552000     0.43654000   -37.10000000
   78.81541000     0.43349000   -36.40000000
   78.81530000     0.43045000   -35.40000000
   78.81520000     0.42741000   -36.40000000
   78.81509000     0.42441000   -35.70000000
   78.81498000     0.42141000   -35.10000000
   78.81487000     0.41841000   -34.70000000
   78.81476000     0.41542000   -36.40000000
   78.81466000     0.41242000   -35.40000000
   78.81455000     0.40942000   -34.40000000
   78.81444000     0.40642000   -33.70000000
   78.81433000     0.40342000   -35.40000000
   78.81423000     0.40042000   -36.40000000
   78.81412000     0.39743000   -36.10000000
   78.81401000     0.39443000   -37.10000000
   78.81391000     0.39144000   -35.90000000
   78.81381000     0.38845000   -36.70000000
   78.81370000     0.38545000   -36.70000000
   78.81360000     0.38246000   -36.90000000
   78.81349000     0.37947000   -35.20000000
   78.81339000     0.37647000   -33.70000000
   78.81265000     0.35570000   -35.20000000
   78.81254000     0.35275000   -35.40000000
   78.81243000     0.34980000   -34.90000000
   78.81233000     0.34685000   -35.70000000
   78.81201000     0.33800000   -36.70000000
   78.81192000     0.33502000   -36.60000000
   78.81184000     0.33204000   -38.40000000
   78.81175000     0.32906000   -37.20000000
   78.81159000     0.32310000   -36.20000000
   78.81142000     0.31713000   -34.20000000
   78.81134000     0.31415000   -34.40000000
   78.81126000     0.31117000   -35.90000000
   78.81107000     0.30519000   -35.90000000
   78.81097000     0.30219000   -35.90000000
   78.81076000     0.29619000   -34.40000000
   78.81065000     0.29319000   -35.20000000
   78.81055000     0.29019000   -33.70000000
   78.81044000     0.28720000   -35.70000000
   78.81034000     0.28420000   -33.40000000
   78.81023000     0.28120000   -34.20000000
   78.81013000     0.27820000   -34.90000000
   78.81004000     0.27521000   -34.60000000
   78.80994000     0.27223000   -36.20000000
   78.80985000     0.26924000   -38.20000000
   78.80966000     0.26327000   -37.20000000
   78.80957000     0.26029000   -36.10000000
   78.80947000     0.25731000   -37.20000000
   78.80938000     0.25432000   -39.70000000
   78.80928000     0.25134000   -36.40000000
   78.80919000     0.24835000   -37.10000000
   78.80918000     0.24536000   -36.10000000
   78.80916000     0.24237000   -36.70000000
   78.80915000     0.23937000   -37.40000000
   78.80913000     0.23638000   -34.40000000
   78.80912000     0.23339000   -37.40000000
   78.80910000     0.23040000   -39.20000000
   78.80909000     0.22740000   -37.90000000
   78.80908000     0.22441000   -35.70000000
   78.80906000     0.22142000   -36.20000000
   78.80905000     0.21843000   -36.20000000
   78.80904000     0.21541000   -34.70000000
   78.80903000     0.21240000   -33.90000000
   78.80901000     0.20939000   -35.20000000
   78.80900000     0.20638000   -34.60000000
   78.80899000     0.20337000   -33.40000000
   78.80898000     0.20035000   -33.60000000
   78.80897000     0.19734000   -34.70000000
   78.80896000     0.19433000   -34.10000000
   78.80895000     0.19132000   -36.20000000
   78.80894000     0.18830000   -34.60000000
   78.80886000     0.18527000   -32.90000000
   78.80877000     0.18224000   -33.90000000
   78.80860000     0.17618000   -36.20000000
   78.80851000     0.17315000   -34.20000000
   78.80834000     0.16708000   -36.90000000
   78.80816000     0.16102000   -37.20000000
   78.80807000     0.15799000   -38.60000000
   78.80813000     0.15495000   -37.40000000
   78.80819000     0.15192000   -38.40000000
   78.80825000     0.14888000   -39.40000000
   78.80831000     0.14584000   -38.20000000
   78.80849000     0.13674000   -38.90000000
   78.80855000     0.13370000   -37.20000000
   78.80861000     0.13066000   -37.70000000
   78.80867000     0.12763000   -38.20000000
   78.80874000     0.12462000   -38.10000000
   78.80881000     0.12161000   -37.60000000
   78.80887000     0.11860000   -38.20000000
   78.80914000     0.10657000   -39.40000000
   78.80921000     0.10357000   -36.10000000
   78.80928000     0.10056000   -36.10000000
   78.80934000     0.09755000   -36.70000000
   78.80941000     0.09455000   -36.60000000
   78.80947000     0.09155000   -36.20000000
   78.80953000     0.08855000   -34.70000000
   78.80960000     0.08554000   -37.40000000
   78.80966000     0.08254000   -37.90000000
   78.80972000     0.07954000   -37.90000000
   78.80979000     0.07654000   -36.70000000
   78.80985000     0.07354000   -36.20000000
   78.80991000     0.07053000   -35.70000000
   78.80998000     0.06753000   -36.40000000
   78.81007000     0.06455000   -39.20000000
   78.81017000     0.06158000   -40.20000000
   78.81027000     0.05860000   -38.90000000
   78.81037000     0.05562000   -37.10000000
   78.81056000     0.04967000   -36.20000000
   78.81066000     0.04669000   -36.90000000
   78.81095000     0.03776000   -37.90000000
   78.81104000     0.03472000   -37.20000000
   78.81112000     0.03167000   -38.40000000
   78.81121000     0.02863000   -37.40000000
   78.81146000     0.01949000   -39.40000000
   78.81154000     0.01644000   -39.20000000
   78.81186000     0.00433000   -37.20000000
   78.81192000     0.00136000   -37.70000000
   78.81204000    -0.00458000   -40.20000000
   78.81211000    -0.00755000   -38.90000000
   78.81230000    -0.01648000   -38.20000000
   78.81236000    -0.01945000   -38.40000000
   78.81242000    -0.02242000   -40.20000000
   78.81251000    -0.02541000   -38.40000000
   78.81260000    -0.02840000   -39.70000000
   78.81268000    -0.03138000   -38.20000000
   78.81277000    -0.03437000   -36.90000000
   78.81286000    -0.03736000   -38.40000000
   78.81295000    -0.04034000   -39.40000000
   78.81312000    -0.04632000   -37.20000000
   78.81321000    -0.04930000   -35.70000000
   78.81330000    -0.05229000   -39.60000000
   78.81335000    -0.05525000   -38.10000000
   78.81341000    -0.05821000   -40.20000000
   78.81346000    -0.06117000   -39.90000000
   78.81352000    -0.06413000   -37.70000000
   78.81357000    -0.06709000   -39.10000000
   78.81363000    -0.07006000   -37.90000000
   78.81368000    -0.07302000   -38.10000000
   78.81374000    -0.07598000   -38.90000000
   78.81379000    -0.07894000   -37.90000000
   78.81385000    -0.08190000   -38.20000000
   78.81391000    -0.08491000   -37.90000000
   78.81397000    -0.08793000   -37.70000000
   78.81403000    -0.09095000   -38.60000000
   78.81409000    -0.09397000   -39.60000000
   78.81415000    -0.09699000   -37.10000000
   78.81421000    -0.10001000   -37.90000000
   78.81439000    -0.10907000   -39.10000000
   78.81446000    -0.11209000   -37.40000000
   78.81464000    -0.11807000   -38.40000000
   78.81473000    -0.12106000   -37.70000000
   78.81483000    -0.12405000   -38.20000000
   78.81492000    -0.12704000   -37.90000000
   78.81501000    -0.13003000   -37.40000000
   78.81529000    -0.13900000   -38.40000000
   78.81539000    -0.14199000   -38.70000000
   78.81550000    -0.14490000   -38.20000000
   78.81562000    -0.14781000   -37.40000000
   78.81574000    -0.15071000   -36.70000000
   78.81621000    -0.16234000   -38.60000000
   78.81633000    -0.16525000   -39.40000000
   78.81644000    -0.16816000   -38.10000000
   78.81656000    -0.17106000   -35.70000000
   78.81669000    -0.17401000   -38.20000000
   78.81682000    -0.17696000   -38.40000000
   78.81695000    -0.17991000   -36.10000000
   78.81708000    -0.18286000   -36.70000000
   78.81721000    -0.18581000   -38.60000000
   78.81734000    -0.18876000   -36.90000000
   78.81773000    -0.19761000   -37.20000000
   78.81786000    -0.20056000   -37.20000000
   78.81797000    -0.20351000   -38.90000000
   78.81832000    -0.21234000   -40.20000000
   78.81843000    -0.21528000   -39.20000000
   78.81866000    -0.22117000   -38.40000000
   78.81877000    -0.22411000   -38.90000000
   78.81889000    -0.22705000   -36.90000000
   78.81900000    -0.23000000   -36.60000000
   78.81913000    -0.23297000   -37.60000000
   78.81926000    -0.23594000   -36.40000000
   78.81939000    -0.23891000   -36.20000000
   78.81951000    -0.24188000   -35.90000000
   78.81964000    -0.24485000   -37.90000000
   78.81977000    -0.24782000   -36.70000000
   78.81990000    -0.25079000   -36.70000000
   78.82003000    -0.25376000   -37.10000000
   78.82016000    -0.25673000   -35.60000000
   78.82028000    -0.25970000   -36.40000000
   78.82040000    -0.26263000   -38.10000000
   78.82053000    -0.26555000   -36.40000000
   78.82065000    -0.26848000   -37.10000000
   78.82077000    -0.27140000   -37.90000000
   78.82089000    -0.27433000   -38.40000000
   78.82101000    -0.27726000   -37.70000000
   78.82113000    -0.28018000   -35.70000000
   78.82125000    -0.28311000   -35.60000000
   78.82137000    -0.28603000   -35.90000000
   78.82149000    -0.28896000   -35.70000000
   78.82162000    -0.29190000   -36.40000000
   78.82175000    -0.29484000   -38.40000000
   78.82188000    -0.29778000   -37.70000000
   78.82201000    -0.30073000   -38.20000000
   78.82215000    -0.30367000   -37.70000000
   78.82241000    -0.30955000   -37.90000000
   78.82254000    -0.31250000   -37.90000000
   78.82280000    -0.31838000   -35.70000000
   78.82292000    -0.32130000   -37.40000000
   78.82304000    -0.32421000   -37.20000000
   78.82316000    -0.32713000   -38.20000000
   78.82327000    -0.33004000   -37.40000000
   78.82339000    -0.33296000   -39.20000000
   78.82351000    -0.33587000   -40.90000000
   78.82363000    -0.33879000   -40.60000000
   78.82375000    -0.34170000   -40.20000000
   78.82398000    -0.34753000   -38.20000000
   78.82412000    -0.35045000   -40.20000000
   78.82425000    -0.35337000   -38.10000000
   78.82451000    -0.35920000   -38.70000000
   78.82465000    -0.36212000   -36.90000000
   78.82478000    -0.36503000   -36.40000000
   78.82491000    -0.36795000   -37.70000000
   78.82505000    -0.37087000   -38.90000000
   78.82518000    -0.37378000   -39.20000000
   78.82531000    -0.37670000   -39.40000000
   78.82543000    -0.37964000   -38.90000000
   78.82554000    -0.38259000   -36.70000000
   78.82566000    -0.38553000   -37.10000000
   78.82577000    -0.38847000   -36.60000000
   78.82589000    -0.39141000   -39.20000000
   78.82600000    -0.39436000   -36.60000000
   78.82612000    -0.39730000   -38.20000000
   78.82623000    -0.40024000   -37.40000000
   78.82635000    -0.40319000   -40.70000000
   78.82659000    -0.40907000   -41.70000000
