   90.43993000     5.38622000     9.10000000
   90.43782000     5.38640000    12.40000000
   90.43571000     5.38658000    13.10000000
   90.43360000     5.38676000    13.90000000
   90.43128000     5.38694000    14.30000000
   90.42895000     5.38711000    15.90000000
   90.42662000     5.38729000    14.00000000
   90.42430000     5.38746000    11.10000000
   90.42216000     5.38759000    11.30000000
   90.42002000     5.38771000    14.90000000
   90.41788000     5.38784000    11.50000000
   90.41574000     5.38796000    10.60000000
   90.41360000     5.38807000    13.20000000
   90.41146000     5.38817000    13.80000000
   90.40932000     5.38827000    14.20000000
   90.40718000     5.38838000    14.70000000
   90.40504000     5.38852000    14.40000000
   90.40291000     5.38867000    10.90000000
   90.40078000     5.38882000     8.70000000
   90.39649000     5.38907000    14.20000000
   90.39432000     5.38917000    14.50000000
   90.39216000     5.38927000    11.80000000
   90.39000000     5.38937000    13.90000000
   90.38770000     5.38952000    15.80000000
   90.38539000     5.38966000    15.60000000
   90.38308000     5.38980000    16.40000000
   90.38078000     5.38994000    14.80000000
   90.37869000     5.39002000    14.40000000
   90.37659000     5.39010000     9.90000000
   90.37450000     5.39018000    10.40000000
   90.37241000     5.39027000    10.60000000
   90.37019000     5.39035000    12.30000000
   90.36797000     5.39044000    13.30000000
   90.36575000     5.39053000    13.40000000
   90.36354000     5.39062000    11.30000000
   90.36129000     5.39076000    13.00000000
   90.35905000     5.39090000    13.00000000
   90.35681000     5.39104000    15.10000000
   90.35449000     5.39114000    13.30000000
   90.35216000     5.39123000    11.90000000
   90.34984000     5.39133000    14.40000000
   90.34752000     5.39142000    15.40000000
   90.34526000     5.39144000    13.40000000
   90.34299000     5.39145000    14.30000000
   90.34072000     5.39146000    13.30000000
   90.33846000     5.39147000    12.10000000
   90.33616000     5.39147000    16.30000000
   90.33386000     5.39147000    13.50000000
   90.33157000     5.39147000    16.30000000
   90.32927000     5.39146000    17.70000000
   90.32695000     5.39149000    15.00000000
   90.32462000     5.39151000    17.70000000
   90.32230000     5.39154000    15.80000000
   90.31997000     5.39157000    16.60000000
   90.31757000     5.39165000    16.50000000
   90.31517000     5.39173000    14.80000000
   90.31277000     5.39181000    13.20000000
   90.31037000     5.39190000    13.00000000
   90.30810000     5.39189000    14.50000000
   90.30583000     5.39188000    15.10000000
   90.30356000     5.39187000    17.60000000
   90.29912000     5.39189000    11.80000000
   90.29696000     5.39191000    12.20000000
   90.29479000     5.39193000    13.20000000
   90.29037000     5.39198000    16.10000000
   90.28811000     5.39201000    15.50000000
   90.28585000     5.39204000    15.30000000
   90.28350000     5.39205000    17.10000000
   90.28115000     5.39205000    17.10000000
   90.27880000     5.39206000    17.90000000
   90.27645000     5.39206000    19.40000000
   90.27410000     5.39210000    18.20000000
   90.27175000     5.39213000    15.40000000
   90.26940000     5.39216000    12.40000000
   90.26705000     5.39219000    16.80000000
   90.26478000     5.39221000    12.50000000
   90.26250000     5.39223000    11.20000000
   90.26022000     5.39225000    11.00000000
   90.25794000     5.39228000    14.80000000
   90.25568000     5.39227000    14.30000000
   90.25342000     5.39226000    14.70000000
   90.24890000     5.39225000    11.20000000
   90.24651000     5.39228000    15.30000000
   90.24412000     5.39231000    16.90000000
   90.24174000     5.39234000    16.80000000
   90.23935000     5.39237000    17.80000000
   90.23694000     5.39237000    16.30000000
   90.23452000     5.39238000    13.60000000
   90.23210000     5.39239000    12.30000000
   90.22969000     5.39239000    15.10000000
   90.22720000     5.39240000    14.60000000
   90.22472000     5.39241000    14.00000000
   90.22224000     5.39242000    16.30000000
   90.21975000     5.39242000    18.70000000
   90.21572000     5.39242000    10.10000000
   90.21370000     5.39241000    11.70000000
   90.21137000     5.39243000    15.20000000
   90.20904000     5.39244000    14.90000000
   90.20672000     5.39246000    15.80000000
   90.20439000     5.39247000    16.90000000
   90.20214000     5.39250000    12.90000000
   90.19989000     5.39253000    14.10000000
   90.19763000     5.39256000    10.60000000
   90.19538000     5.39260000    11.90000000
   90.19308000     5.39261000    12.10000000
   90.19078000     5.39263000    13.30000000
   90.18848000     5.39265000    13.20000000
   90.18618000     5.39267000    16.80000000
   90.18395000     5.39268000    13.30000000
   90.18171000     5.39270000    13.40000000
   90.17947000     5.39271000    13.80000000
   90.17723000     5.39273000    14.10000000
   90.17499000     5.39275000    14.00000000
   90.17274000     5.39278000    12.40000000
   90.17049000     5.39281000    13.10000000
   90.16825000     5.39284000    11.70000000
   90.16597000     5.39288000    13.90000000
   90.16370000     5.39291000    11.90000000
   90.16143000     5.39294000    11.90000000
   90.15915000     5.39298000     9.50000000
   90.15692000     5.39301000    11.90000000
   90.15469000     5.39305000    12.70000000
   90.15245000     5.39309000    12.50000000
   90.15016000     5.39309000    12.90000000
   90.14786000     5.39308000    14.60000000
   90.14556000     5.39307000    17.70000000
   90.14105000     5.39298000    10.40000000
   90.13883000     5.39290000    13.00000000
   90.13662000     5.39281000    12.30000000
   90.13440000     5.39273000    10.40000000
   90.13216000     5.39265000    11.30000000
   90.12993000     5.39257000    11.40000000
   90.12769000     5.39250000     9.90000000
   90.12545000     5.39242000    11.90000000
   90.12323000     5.39235000    14.00000000
   90.12100000     5.39227000    10.50000000
   90.11878000     5.39220000    10.80000000
   90.11656000     5.39212000    11.20000000
   90.11438000     5.39204000    11.00000000
   90.11220000     5.39196000    10.90000000
   90.11002000     5.39188000    12.00000000
   90.10784000     5.39179000    10.10000000
   90.10493000     5.39167000     8.40000000
   90.10202000     5.39155000     9.90000000
   90.09911000     5.39142000    10.60000000
   90.09714000     5.39135000    13.40000000
   90.09517000     5.39128000     8.50000000
   90.09320000     5.39122000     8.90000000
   90.09127000     5.39115000    12.80000000
   90.08740000     5.39101000    10.40000000
   90.08515000     5.39100000    11.50000000
   90.08290000     5.39099000    12.30000000
   90.08065000     5.39097000    12.00000000
   90.07836000     5.39097000    13.30000000
   90.07606000     5.39096000     9.90000000
   90.07376000     5.39095000    12.10000000
   90.07147000     5.39095000    11.10000000
   90.06921000     5.39097000    13.60000000
   90.06696000     5.39099000    12.60000000
   90.06471000     5.39102000     9.10000000
   90.06246000     5.39104000     7.90000000
   90.06019000     5.39089000     9.20000000
   90.05793000     5.39073000    11.80000000
   90.05567000     5.39058000    13.40000000
   90.05341000     5.39042000    10.00000000
   90.04667000     5.38909000    12.40000000
   90.04443000     5.38864000    12.70000000
   90.04230000     5.38826000    13.60000000
   90.04018000     5.38788000     9.10000000
   90.03805000     5.38750000     8.30000000
   90.03592000     5.38711000    10.40000000
   90.03371000     5.38661000    11.80000000
   90.03150000     5.38611000    12.40000000
   90.02928000     5.38561000     9.30000000
   90.02707000     5.38511000    10.70000000
   90.02478000     5.38468000    13.40000000
   90.02248000     5.38424000    12.30000000
   90.02018000     5.38380000    15.80000000
   90.01789000     5.38336000    15.60000000
   90.01590000     5.38290000    15.20000000
   90.01329000     5.39853000    12.70000000
   90.01456000     5.40032000    12.10000000
   90.01584000     5.40212000    12.10000000
   90.01712000     5.40392000    10.30000000
   90.01840000     5.40572000     7.60000000
   90.01970000     5.40757000     8.20000000
   90.02101000     5.40942000     8.00000000
   90.02231000     5.41127000     9.30000000
   90.02362000     5.41312000     9.30000000
   90.02489000     5.41496000    10.10000000
   90.02617000     5.41680000    11.10000000
   90.02745000     5.41864000     9.10000000
   90.02873000     5.42047000    11.10000000
   90.02993000     5.42221000    10.70000000
   90.03113000     5.42394000    12.10000000
   90.03233000     5.42568000    11.90000000
   90.03360000     5.42745000     9.80000000
   90.03488000     5.42923000     9.70000000
   90.03616000     5.43101000     9.10000000
   90.03743000     5.43279000     9.80000000
   90.03877000     5.43462000     8.20000000
   90.04010000     5.43644000     8.80000000
   90.04144000     5.43827000     8.20000000
   90.04277000     5.44010000     8.50000000
   90.04408000     5.44194000     6.50000000
   90.04539000     5.44379000     8.70000000
   90.04670000     5.44563000     7.90000000
   90.04801000     5.44748000     8.20000000
   90.04933000     5.44925000     7.70000000
   90.05065000     5.45102000     7.90000000
   90.05197000     5.45279000     8.10000000
   90.05329000     5.45456000     7.80000000
   90.05458000     5.45635000     9.60000000
   90.05588000     5.45814000     8.40000000
   90.05717000     5.45993000     7.90000000
   90.05847000     5.46173000     9.00000000
   90.05976000     5.46358000     8.90000000
   90.06106000     5.46544000     8.40000000
   90.06235000     5.46729000     9.40000000
   90.06365000     5.46915000     6.40000000
   90.06497000     5.47096000     9.10000000
   90.06629000     5.47278000     8.80000000
   90.06761000     5.47460000     6.10000000
   90.06893000     5.47641000     7.60000000
   90.07021000     5.47822000     7.90000000
   90.07149000     5.48002000     9.30000000
   90.07277000     5.48183000     9.90000000
   90.07403000     5.48361000     7.40000000
   90.07529000     5.48539000     9.00000000
   90.07655000     5.48718000     7.70000000
   90.07781000     5.48896000     8.20000000
   90.07908000     5.49077000     8.60000000
   90.08036000     5.49257000     7.80000000
   90.08163000     5.49437000     7.90000000
   90.08290000     5.49618000     8.30000000
   90.08420000     5.49797000     6.40000000
   90.08549000     5.49976000     6.10000000
   90.08679000     5.50155000     6.90000000
   90.08808000     5.50334000     8.30000000
   90.08939000     5.50510000     8.00000000
   90.09069000     5.50686000     7.10000000
   90.09200000     5.50862000     6.90000000
   90.09330000     5.51037000     8.70000000
   90.09463000     5.51220000     8.80000000
   90.09595000     5.51402000     7.40000000
   90.09727000     5.51585000     7.80000000
   90.09860000     5.51768000     8.30000000
   90.09987000     5.51944000     6.40000000
   90.10115000     5.52121000     8.80000000
   90.10243000     5.52298000     8.40000000
   90.10370000     5.52475000     6.90000000
   90.10502000     5.52652000     7.50000000
   90.10633000     5.52829000     7.20000000
   90.10765000     5.53007000     7.60000000
   90.10897000     5.53184000     6.00000000
   90.11041000     5.53376000     5.60000000
   90.11186000     5.53568000     5.40000000
   90.11331000     5.53760000     5.30000000
   90.11476000     5.53952000     5.80000000
   90.11610000     5.54129000     6.70000000
   90.11745000     5.54306000     6.90000000
   90.11879000     5.54483000     7.40000000
   90.12014000     5.54659000     5.80000000
   90.12142000     5.54840000     7.50000000
   90.12271000     5.55021000     7.50000000
   90.12400000     5.55202000     7.80000000
   90.12528000     5.55383000     7.10000000
   90.12659000     5.55554000     6.20000000
   90.12789000     5.55726000     8.40000000
   90.12919000     5.55898000     7.80000000
   90.13050000     5.56069000     7.60000000
   90.13178000     5.56243000     8.90000000
   90.13306000     5.56417000     7.30000000
   90.13434000     5.56591000     7.80000000
   90.13562000     5.56764000     7.70000000
   90.13688000     5.56940000     7.00000000
   90.13813000     5.57116000     7.60000000
   90.13938000     5.57292000     6.10000000
   90.14064000     5.57467000     8.00000000
   90.14190000     5.57642000     7.90000000
   90.14316000     5.57816000     8.80000000
   90.14442000     5.57990000     9.30000000
   90.14568000     5.58164000     9.30000000
   90.14683000     5.58336000    10.40000000
   90.14798000     5.58508000    10.40000000
   90.14913000     5.58680000     9.90000000
   90.15049000     5.58859000     9.90000000
   90.15185000     5.59038000    10.80000000
   90.15321000     5.59217000     9.50000000
   90.15457000     5.59396000     9.40000000
   90.15593000     5.59574000     9.60000000
   90.15729000     5.59751000     8.60000000
   90.15866000     5.59929000     7.40000000
   90.16002000     5.60106000     6.30000000
   90.16139000     5.60283000     6.50000000
   90.16275000     5.60459000     6.70000000
   90.16412000     5.60635000     6.90000000
   90.16548000     5.60811000     5.80000000
   90.16685000     5.60989000     7.60000000
   90.16822000     5.61167000     7.40000000
   90.16959000     5.61345000     6.60000000
   90.17095000     5.61523000     7.90000000
   90.17234000     5.61703000     8.60000000
   90.17372000     5.61883000     9.30000000
   90.17510000     5.62064000     6.90000000
   90.17649000     5.62244000     5.80000000
   90.17787000     5.62422000     8.10000000
   90.17925000     5.62599000     5.60000000
   90.18063000     5.62777000     6.80000000
   90.18202000     5.62954000    10.80000000
   90.18321000     5.63144000     7.20000000
   90.18441000     5.63333000     7.80000000
   90.18561000     5.63522000     6.90000000
   90.18681000     5.63711000     5.60000000
   90.18798000     5.63895000     8.00000000
   90.18916000     5.64078000     6.60000000
   90.19033000     5.64262000     8.10000000
   90.19153000     5.64450000     7.80000000
   90.19272000     5.64639000     8.60000000
   90.19392000     5.64828000     9.80000000
   90.19512000     5.65016000    10.50000000
   90.19631000     5.65205000     9.30000000
   90.19751000     5.65393000     8.20000000
   90.19871000     5.65581000     7.10000000
   90.19991000     5.65770000     8.10000000
   90.20110000     5.65961000     8.40000000
   90.20229000     5.66152000    10.10000000
   90.20348000     5.66343000    10.40000000
   90.20468000     5.66534000    11.30000000
   90.20587000     5.66725000    11.30000000
   90.20706000     5.66915000    12.80000000
   90.20826000     5.67106000    11.20000000
   90.20945000     5.67296000    11.90000000
   90.21066000     5.67486000    13.20000000
   90.21186000     5.67675000    10.30000000
   90.21306000     5.67865000    10.10000000
   90.21427000     5.68055000     9.60000000
   90.21546000     5.68239000    10.60000000
   90.21665000     5.68424000     9.60000000
   90.21784000     5.68608000    10.40000000
   90.21903000     5.68793000    10.30000000
   90.22023000     5.68980000    10.30000000
   90.22142000     5.69167000    11.60000000
   90.22261000     5.69354000    12.80000000
   90.22380000     5.69541000    14.00000000
   90.22497000     5.69726000    13.30000000
   90.22614000     5.69910000    13.80000000
   90.22731000     5.70095000    13.40000000
   90.22850000     5.70283000    13.10000000
   90.22970000     5.70471000    11.10000000
   90.23090000     5.70659000    11.60000000
   90.23210000     5.70847000    10.20000000
   90.23332000     5.71036000     9.60000000
   90.23454000     5.71224000    10.60000000
   90.23575000     5.71413000    11.50000000
   90.23697000     5.71602000    12.60000000
   90.23820000     5.71791000    12.30000000
   90.23942000     5.71981000    12.10000000
   90.24065000     5.72171000    11.70000000
   90.24188000     5.72361000     8.90000000
   90.24312000     5.72550000    10.60000000
   90.24436000     5.72739000     9.90000000
   90.24560000     5.72928000    10.10000000
   90.24684000     5.73117000    11.30000000
   90.24807000     5.73305000    13.30000000
   90.24930000     5.73494000    13.80000000
   90.25053000     5.73683000    12.10000000
   90.25176000     5.73871000    13.80000000
   90.25298000     5.74058000    14.20000000
   90.25421000     5.74244000    10.80000000
   90.25543000     5.74431000    11.00000000
   90.25666000     5.74618000    11.70000000
   90.25789000     5.74810000    12.60000000
   90.25912000     5.75003000    14.30000000
   90.26035000     5.75195000    14.60000000
   90.26158000     5.75388000    15.70000000
   90.26262000     5.75547000    14.90000000
   90.26366000     5.75707000    14.20000000
   90.26470000     5.75866000    13.80000000
   90.26587000     5.76046000    13.90000000
   90.26704000     5.76225000    14.60000000
   90.26820000     5.76405000    15.60000000
   90.26937000     5.76585000    17.90000000
   90.27054000     5.76765000    19.10000000
   90.27171000     5.76945000    18.30000000
   90.27289000     5.77126000    18.50000000
   90.27406000     5.77306000    18.90000000
   90.27524000     5.77487000    17.60000000
   90.27642000     5.77667000    19.60000000
   90.27759000     5.77847000    22.00000000
   90.28036000     5.78125000    24.20000000
   90.28623000     5.77675000    26.40000000
   90.28559000     5.77465000    24.30000000
   90.28496000     5.77256000    24.00000000
   90.28206000     5.76318000    22.90000000
   90.28125000     5.76058000    21.90000000
   90.28067000     5.75867000    22.10000000
   90.28009000     5.75677000    21.60000000
   90.27951000     5.75486000    19.90000000
   90.27884000     5.75272000    19.10000000
   90.27817000     5.75057000    18.60000000
   90.27750000     5.74842000    18.60000000
   90.27684000     5.74628000    18.60000000
   90.27616000     5.74409000    17.60000000
   90.27548000     5.74190000    17.50000000
   90.27480000     5.73971000    17.60000000
   90.27413000     5.73753000    16.60000000
   90.27343000     5.73527000    16.70000000
   90.27273000     5.73301000    17.00000000
   90.27203000     5.73075000    15.90000000
   90.27133000     5.72849000    15.90000000
   90.27049000     5.72632000    17.90000000
   90.26965000     5.72415000    18.70000000
   90.26881000     5.72198000    16.40000000
   90.26798000     5.71982000    17.10000000
   90.26709000     5.71774000    16.00000000
   90.26621000     5.71567000    16.30000000
   90.26532000     5.71359000    15.80000000
   90.26444000     5.71152000    15.90000000
   90.26356000     5.70945000    15.30000000
   90.26269000     5.70739000    15.30000000
   90.26181000     5.70533000    16.10000000
   90.26094000     5.70327000    15.90000000
   90.26008000     5.70130000    13.10000000
   90.25922000     5.69932000    15.00000000
   90.25836000     5.69735000    14.70000000
   90.25746000     5.69525000    15.70000000
   90.25657000     5.69316000    17.40000000
   90.25568000     5.69106000    16.30000000
   90.25479000     5.68897000    15.80000000
   90.25394000     5.68694000    14.40000000
   90.25308000     5.68492000    12.80000000
   90.25223000     5.68290000    13.80000000
   90.25138000     5.68088000    13.40000000
   90.25050000     5.67882000    15.10000000
   90.24962000     5.67677000    15.50000000
   90.24874000     5.67472000    14.40000000
   90.24786000     5.67266000    14.50000000
   90.24695000     5.67056000    14.70000000
   90.24605000     5.66845000    15.80000000
   90.24514000     5.66635000    14.70000000
   90.24423000     5.66424000    14.30000000
   90.24333000     5.66210000    13.40000000
   90.24242000     5.65996000    13.40000000
   90.24151000     5.65782000    13.10000000
   90.24060000     5.65568000    12.80000000
   90.23965000     5.65352000    11.70000000
   90.23870000     5.65137000    10.40000000
   90.23775000     5.64922000    11.40000000
   90.23680000     5.64707000     8.60000000
   90.23576000     5.64496000    10.30000000
   90.23472000     5.64284000     7.40000000
   90.23369000     5.64073000     6.40000000
   90.23265000     5.63861000     7.40000000
   90.23166000     5.63658000     6.70000000
   90.23067000     5.63455000     6.60000000
   90.22969000     5.63253000     8.80000000
   90.22869000     5.63045000     5.60000000
   90.22769000     5.62838000     7.30000000
   90.22669000     5.62631000     7.10000000
   90.22570000     5.62424000     7.30000000
   90.22469000     5.62217000     6.50000000
   90.22368000     5.62009000     8.90000000
   90.22267000     5.61802000     6.90000000
   90.22167000     5.61595000     7.30000000
   90.22070000     5.61384000     7.80000000
   90.21973000     5.61174000     8.30000000
   90.21875000     5.60963000     6.50000000
   90.21778000     5.60753000     5.00000000
   90.21715000     5.60526000     5.40000000
   90.21652000     5.60299000     7.90000000
   90.21590000     5.60072000     9.60000000
   90.21527000     5.59845000     8.60000000
   90.21463000     5.59604000    10.30000000
   90.21398000     5.59363000    11.60000000
   90.21334000     5.59122000    11.20000000
   90.21270000     5.58881000    10.80000000
   90.21207000     5.58646000    11.40000000
   90.21144000     5.58411000    11.00000000
   90.21081000     5.58176000    11.00000000
   90.21018000     5.57942000    10.90000000
   90.20953000     5.57699000    11.00000000
   90.20888000     5.57456000    10.90000000
   90.20823000     5.57214000    11.10000000
   90.20758000     5.56971000    11.10000000
   90.20699000     5.56743000    10.30000000
   90.20640000     5.56515000    11.80000000
   90.20581000     5.56287000    11.70000000
   90.20518000     5.56045000    10.10000000
   90.20455000     5.55803000    12.20000000
   90.20392000     5.55561000    10.70000000
   90.20330000     5.55319000    12.70000000
   90.20267000     5.55081000    11.90000000
   90.20205000     5.54843000    10.30000000
   90.20143000     5.54605000    10.10000000
   90.20081000     5.54367000    11.10000000
   90.20019000     5.54135000    12.60000000
   90.19957000     5.53904000    12.30000000
   90.19895000     5.53673000    11.10000000
   90.19834000     5.53442000    10.80000000
   90.19771000     5.53215000    11.10000000
   90.19708000     5.52988000    12.70000000
   90.19645000     5.52761000    12.60000000
   90.19583000     5.52535000    12.40000000
   90.19522000     5.52308000    12.40000000
   90.19461000     5.52081000    11.00000000
   90.19400000     5.51854000    10.50000000
   90.19338000     5.51628000    10.60000000
   90.19280000     5.51402000    10.80000000
   90.19221000     5.51176000    11.50000000
   90.19162000     5.50950000    12.50000000
   90.19103000     5.50724000    11.80000000
   90.19035000     5.50474000    13.10000000
   90.18968000     5.50224000    11.90000000
   90.18900000     5.49974000    12.10000000
   90.18833000     5.49725000    11.40000000
   90.18778000     5.49519000    10.40000000
   90.18723000     5.49313000     9.20000000
   90.18669000     5.49107000     9.90000000
   90.18608000     5.48877000     9.40000000
   90.18547000     5.48647000     9.30000000
   90.18486000     5.48417000    10.10000000
   90.18425000     5.48188000    10.70000000
   90.18362000     5.47954000    10.40000000
   90.18299000     5.47720000     9.90000000
   90.18236000     5.47486000     8.70000000
   90.18173000     5.47252000     9.60000000
   90.18110000     5.47022000     9.60000000
   90.18048000     5.46792000    11.30000000
   90.17986000     5.46562000    10.30000000
   90.17923000     5.46332000    10.60000000
   90.17861000     5.46104000    12.10000000
   90.17799000     5.45876000    13.40000000
   90.17737000     5.45648000    12.40000000
   90.17675000     5.45419000    10.90000000
   90.17614000     5.45191000    10.30000000
   90.17553000     5.44963000    10.90000000
   90.17492000     5.44735000    11.90000000
   90.17430000     5.44506000    11.80000000
   90.17369000     5.44273000    12.50000000
   90.17308000     5.44039000    10.90000000
   90.17247000     5.43806000     9.70000000
   90.17185000     5.43572000    11.40000000
   90.17120000     5.43324000    14.30000000
   90.17055000     5.43076000    11.40000000
   90.16990000     5.42828000    12.60000000
   90.16925000     5.42579000    11.80000000
   90.16865000     5.42353000    11.00000000
   90.16804000     5.42126000    12.40000000
   90.16743000     5.41899000    12.60000000
   90.16683000     5.41672000    12.80000000
   90.16622000     5.41440000    12.40000000
   90.16562000     5.41207000    14.10000000
   90.16502000     5.40974000    13.90000000
   90.16442000     5.40742000    13.70000000
   90.16380000     5.40520000    15.20000000
   90.16319000     5.40299000    13.90000000
   90.16258000     5.40078000    13.60000000
   90.16197000     5.39857000    15.00000000
   90.16136000     5.39643000    15.90000000
   90.16076000     5.39429000    13.80000000
   90.16016000     5.39215000    15.30000000
   90.15956000     5.39001000    15.00000000
   90.15898000     5.38788000    14.30000000
   90.15840000     5.38574000    14.00000000
   90.15783000     5.38361000    13.30000000
   90.15725000     5.38148000    13.30000000
   90.15672000     5.37931000    13.90000000
   90.15618000     5.37715000    13.80000000
   90.15564000     5.37499000    12.50000000
   90.15511000     5.37282000    14.20000000
   90.15458000     5.37071000    13.00000000
   90.15405000     5.36859000    14.30000000
   90.15352000     5.36648000    13.30000000
   90.15299000     5.36436000    13.90000000
   90.15244000     5.36226000    14.90000000
   90.15189000     5.36016000    14.50000000
   90.15135000     5.35806000    13.90000000
   90.15079000     5.35587000    13.90000000
   90.15024000     5.35367000    13.50000000
   90.14968000     5.35147000    12.80000000
   90.14913000     5.34927000    13.80000000
   90.14853000     5.34686000    12.60000000
   90.14793000     5.34446000    12.80000000
   90.14733000     5.34205000    11.80000000
   90.14673000     5.33964000    13.40000000
   90.14613000     5.33723000    13.40000000
   90.14553000     5.33482000    12.40000000
   90.14505000     5.33291000    12.80000000
   90.14456000     5.33100000    13.30000000
   90.14408000     5.32910000    13.10000000
   90.14358000     5.32715000    12.80000000
   90.14309000     5.32521000    12.00000000
   90.14260000     5.32327000    13.80000000
   90.14204000     5.32109000    14.60000000
   90.14149000     5.31890000    12.80000000
   90.14094000     5.31671000    13.60000000
   90.14038000     5.31452000    12.10000000
   90.13977000     5.31236000    13.40000000
   90.13916000     5.31019000    15.30000000
   90.13854000     5.30803000    13.90000000
   90.13793000     5.30587000    13.20000000
   90.13718000     5.30368000    13.50000000
   90.13643000     5.30149000    13.30000000
   90.13568000     5.29930000    14.00000000
   90.13494000     5.29712000    12.80000000
   90.13431000     5.29527000    14.50000000
   90.12744000     5.29001000    12.90000000
   90.12566000     5.29111000    10.50000000
   90.12388000     5.29221000    10.40000000
   90.12210000     5.29331000    12.70000000
   90.12033000     5.29441000    12.40000000
   90.11851000     5.29555000    12.30000000
   90.11669000     5.29669000    14.90000000
   90.11487000     5.29783000    14.50000000
   90.11305000     5.29898000    12.40000000
   90.11125000     5.30012000    10.90000000
   90.10945000     5.30127000    14.60000000
   90.10765000     5.30242000    11.90000000
   90.10585000     5.30356000    11.60000000
   90.10411000     5.30465000    11.10000000
   90.10236000     5.30574000    12.10000000
   90.10062000     5.30683000    13.40000000
   90.09887000     5.30792000    16.10000000
   90.09705000     5.30908000    13.70000000
   90.09523000     5.31024000    13.90000000
   90.09341000     5.31140000    16.00000000
   90.09159000     5.31257000    15.00000000
   90.08979000     5.31369000    15.90000000
   90.08800000     5.31482000    14.80000000
   90.08621000     5.31594000    16.10000000
   90.08439000     5.31710000    13.60000000
   90.08257000     5.31825000    15.30000000
   90.08075000     5.31941000    12.40000000
   90.07894000     5.32056000    14.10000000
   90.07722000     5.32170000    13.20000000
   90.07551000     5.32284000    14.40000000
   90.07380000     5.32398000    14.30000000
   90.07209000     5.32512000    17.20000000
   90.07040000     5.32654000    16.90000000
   90.06872000     5.32796000    18.40000000
   90.06704000     5.32938000    17.70000000
   90.06536000     5.33080000    19.50000000
   90.06378000     5.33225000    14.60000000
   90.06220000     5.33370000    18.10000000
   90.06062000     5.33516000    15.40000000
   90.05905000     5.33661000    18.10000000
   90.05740000     5.33810000    19.30000000
   90.05576000     5.33958000    17.60000000
   90.05412000     5.34106000    19.60000000
   90.05248000     5.34254000    15.80000000
   90.05089000     5.34397000    18.60000000
   90.04931000     5.34540000    16.80000000
   90.04772000     5.34683000    16.90000000
   90.04614000     5.34826000    18.10000000
   90.04305000     5.35105000    13.00000000
   90.04150000     5.35245000    14.80000000
   90.03996000     5.35384000    15.40000000
   90.03844000     5.35522000    17.40000000
   90.03692000     5.35660000    19.30000000
   90.03540000     5.35797000    14.80000000
   90.03224000     5.36085000    14.40000000
   90.03066000     5.36229000    16.40000000
   90.02909000     5.36372000    17.10000000
   90.02743000     5.36514000    16.00000000
   90.02577000     5.36655000    15.00000000
   90.02411000     5.36796000    17.60000000
   90.02246000     5.36937000    15.60000000
   90.02066000     5.37061000    13.80000000
   90.01887000     5.37184000    18.50000000
   90.01708000     5.37308000    16.90000000
   90.01528000     5.37432000    16.80000000
   90.01181000     5.37675000    10.60000000
   90.01007000     5.37797000    14.80000000
   90.00833000     5.37919000    12.30000000
   90.00657000     5.38041000    13.40000000
   90.00481000     5.38163000    13.70000000
   90.00304000     5.38285000    11.50000000
   90.00128000     5.38407000    13.60000000
   89.99948000     5.38535000    13.50000000
   89.99767000     5.38663000    15.20000000
   89.99586000     5.38791000    12.80000000
   89.99405000     5.38920000     9.60000000
   89.99229000     5.39044000    10.50000000
   89.99053000     5.39168000    12.30000000
   89.98878000     5.39292000    11.30000000
   89.98702000     5.39416000    11.30000000
   89.98517000     5.39547000     8.80000000
   89.98333000     5.39677000    11.30000000
   89.98149000     5.39807000    12.80000000
   89.97965000     5.39938000    13.90000000
   89.97782000     5.40066000    12.50000000
   89.97600000     5.40195000     9.30000000
   89.97417000     5.40323000    10.40000000
   89.97235000     5.40452000     7.70000000
   89.97061000     5.40574000     7.90000000
   89.96887000     5.40697000    10.40000000
   89.96714000     5.40820000    11.50000000
   89.96540000     5.40943000     8.90000000
   89.96365000     5.41078000    10.70000000
   89.96189000     5.41213000     9.00000000
   89.96014000     5.41348000     9.60000000
   89.95838000     5.41483000    10.40000000
   89.95670000     5.41604000     7.60000000
   89.95166000     5.41967000     6.90000000
   89.94996000     5.42085000     9.10000000
   89.94826000     5.42203000     7.90000000
   89.94657000     5.42321000     8.60000000
   89.94487000     5.42439000    10.30000000
   89.94309000     5.42565000    10.00000000
   89.94131000     5.42691000    11.00000000
   89.93953000     5.42817000    12.50000000
   89.93775000     5.42943000    11.40000000
   89.93592000     5.43070000     9.80000000
   89.93410000     5.43197000    11.50000000
   89.93228000     5.43324000     7.30000000
   89.93044000     5.43453000     6.70000000
   89.92860000     5.43581000     6.80000000
   89.92676000     5.43709000     7.20000000
   89.92492000     5.43837000     6.80000000
   89.92308000     5.43966000     7.40000000
   89.92124000     5.44095000     7.10000000
   89.91939000     5.44224000     6.90000000
   89.91755000     5.44353000     7.30000000
   89.91579000     5.44476000     6.50000000
   89.91402000     5.44600000     7.70000000
   89.91225000     5.44724000     9.30000000
   89.91049000     5.44848000    11.00000000
   89.90868000     5.44973000    11.60000000
   89.90687000     5.45098000     8.50000000
   89.90506000     5.45224000     8.60000000
   89.90325000     5.45349000     8.90000000
   89.90142000     5.45476000    12.10000000
   89.89958000     5.45603000    13.30000000
   89.89775000     5.45730000    14.40000000
   89.89592000     5.45858000    10.90000000
   89.89419000     5.45979000    10.80000000
   89.89245000     5.46101000    11.70000000
   89.89072000     5.46223000    13.20000000
   89.88899000     5.46344000    13.50000000
   89.88724000     5.46466000    13.90000000
   89.88549000     5.46588000    10.60000000
   89.88373000     5.46710000     9.30000000
   89.88198000     5.46832000    10.70000000
   89.88032000     5.46949000    15.40000000
   89.87865000     5.47065000    11.70000000
   89.87699000     5.47181000    11.10000000
   89.87526000     5.47301000    13.00000000
   89.87353000     5.47421000    14.10000000
   89.87180000     5.47541000    13.40000000
   89.87007000     5.47662000    16.20000000
   89.86822000     5.47789000    18.60000000
   89.86638000     5.47917000    16.40000000
   89.86454000     5.48045000    12.10000000
   89.86270000     5.48172000    14.10000000
   89.86090000     5.48297000    15.10000000
   89.85910000     5.48422000    14.50000000
   89.85730000     5.48547000    12.80000000
   89.85550000     5.48672000    13.30000000
   89.85375000     5.48794000    12.10000000
   89.85199000     5.48916000    13.80000000
   89.85024000     5.49038000    15.60000000
   89.84848000     5.49160000    17.80000000
   89.84676000     5.49279000    14.30000000
   89.84503000     5.49399000    13.10000000
   89.84330000     5.49519000    14.70000000
   89.84158000     5.49639000    19.10000000
   89.83982000     5.49763000    17.50000000
   89.83806000     5.49886000    19.20000000
   89.83631000     5.50009000    17.70000000
   89.83455000     5.50132000    13.40000000
   89.83289000     5.50248000    13.90000000
   89.83124000     5.50364000    15.90000000
   89.82958000     5.50480000    16.10000000
   89.82792000     5.50597000    18.40000000
   89.82625000     5.50713000    16.60000000
   89.82457000     5.50830000    15.90000000
   89.82290000     5.50947000    20.80000000
   89.82112000     5.51072000    20.90000000
   89.81934000     5.51197000    19.60000000
   89.81756000     5.51322000    18.60000000
   89.81578000     5.51447000    19.40000000
   89.81399000     5.51572000    16.90000000
   89.81219000     5.51697000    16.70000000
   89.81039000     5.51822000    19.10000000
   89.80860000     5.51947000    17.90000000
   89.80680000     5.52070000    19.30000000
   89.80500000     5.52194000    21.80000000
   89.80320000     5.52318000    18.80000000
   89.80140000     5.52442000    20.80000000
   89.79960000     5.52568000    20.50000000
   89.79779000     5.52694000    20.10000000
   89.79598000     5.52820000    19.80000000
   89.79418000     5.52946000    18.30000000
   89.79241000     5.53068000    18.80000000
   89.79064000     5.53190000    19.80000000
   89.78887000     5.53312000    16.40000000
   89.78710000     5.53434000    19.30000000
   89.78537000     5.53556000    18.70000000
   89.78191000     5.53798000    12.30000000
   89.78018000     5.53919000    13.60000000
   89.77833000     5.54048000    17.40000000
   89.77647000     5.54177000    19.60000000
   89.77461000     5.54306000    20.60000000
   89.77275000     5.54435000    19.80000000
   89.77116000     5.54545000    17.50000000
   89.76957000     5.54656000    15.90000000
   89.76798000     5.54767000    19.10000000
   89.76450000     5.55005000    15.70000000
   89.76276000     5.55124000    18.40000000
   89.76103000     5.55243000    20.90000000
   89.75927000     5.55362000    15.90000000
   89.75752000     5.55482000    14.80000000
   89.75577000     5.55602000    17.10000000
   89.75402000     5.55722000    18.40000000
   89.75229000     5.55842000    19.90000000
   89.75056000     5.55962000    17.70000000
   89.74883000     5.56082000    19.50000000
   89.74710000     5.56201000    21.20000000
   89.74538000     5.56318000    18.80000000
   89.74367000     5.56435000    16.10000000
   89.74195000     5.56552000    17.20000000
   89.74024000     5.56669000    19.30000000
   89.73859000     5.56783000    19.10000000
   89.73694000     5.56896000    18.40000000
   89.73530000     5.57009000    23.30000000
   89.73365000     5.57122000    19.90000000
   89.73192000     5.57243000    21.60000000
   89.73018000     5.57364000    19.30000000
   89.72844000     5.57485000    21.10000000
   89.72670000     5.57606000    17.90000000
   89.72493000     5.57730000    19.90000000
   89.72139000     5.57978000    14.60000000
   89.71962000     5.58102000    17.40000000
   89.71787000     5.58225000    19.40000000
   89.71612000     5.58347000    21.30000000
   89.71438000     5.58469000    21.10000000
   89.71263000     5.58591000    18.70000000
   89.71079000     5.58717000    17.00000000
   89.70896000     5.58842000    14.20000000
   89.70712000     5.58967000    13.90000000
   89.70529000     5.59092000    14.50000000
   89.70357000     5.59211000    13.80000000
   89.70186000     5.59330000    12.10000000
   89.70015000     5.59449000     9.00000000
   89.69844000     5.59568000    11.00000000
   89.69674000     5.59684000    10.70000000
   89.69334000     5.59918000    15.30000000
   89.69165000     5.60034000    12.30000000
   89.68988000     5.60155000    14.80000000
   89.68812000     5.60275000    14.60000000
   89.68636000     5.60396000    14.40000000
   89.68460000     5.60516000    14.90000000
   89.68285000     5.60637000    15.70000000
   89.68111000     5.60758000    13.70000000
   89.67761000     5.61000000    12.30000000
   89.67598000     5.61120000    14.20000000
   89.67435000     5.61241000    12.90000000
   89.67271000     5.61361000    12.70000000
   89.67108000     5.61482000    10.10000000
   89.66957000     5.61596000    12.10000000
   89.66805000     5.61710000    14.10000000
   89.66654000     5.61824000    15.60000000
   89.66487000     5.61948000    12.30000000
   89.66321000     5.62072000    11.50000000
   89.66154000     5.62196000    12.80000000
   89.65988000     5.62319000    13.80000000
   89.65817000     5.62446000    12.90000000
   89.65647000     5.62573000    10.70000000
   89.65476000     5.62700000    13.40000000
   89.65306000     5.62828000    12.30000000
   89.65131000     5.62958000     9.90000000
   89.64956000     5.63088000    12.00000000
   89.64781000     5.63218000     8.30000000
   89.64607000     5.63348000    10.60000000
   89.64431000     5.63481000    10.00000000
   89.64255000     5.63614000    10.50000000
   89.64079000     5.63747000     8.90000000
   89.63903000     5.63880000    10.20000000
   89.63718000     5.64016000    11.20000000
   89.63533000     5.64153000     9.90000000
   89.63348000     5.64290000     8.90000000
   89.62087000     5.65225000     7.40000000
   89.61900000     5.65364000     8.90000000
   89.61714000     5.65502000     6.80000000
   89.61555000     5.65622000     6.90000000
   89.61396000     5.65742000     8.10000000
   89.61238000     5.65861000     6.50000000
   89.61053000     5.65998000     6.40000000
   89.60869000     5.66135000     6.30000000
   89.60685000     5.66272000     5.60000000
   89.60501000     5.66410000     5.80000000
   89.60317000     5.66544000     5.10000000
   89.59949000     5.66814000     4.60000000
   89.59765000     5.66949000     4.00000000
   89.59409000     5.67210000     4.30000000
   89.59231000     5.67341000     4.10000000
   89.58332000     5.67999000     5.20000000
   89.57818000     5.68382000     4.10000000
   89.57647000     5.68510000     6.30000000
   89.57470000     5.68641000     3.80000000
   89.57292000     5.68773000     4.80000000
   89.57115000     5.68905000     2.00000000
   89.56938000     5.69037000     5.40000000
   89.56762000     5.69166000     2.70000000
   89.56586000     5.69295000     0.80000000
   89.56410000     5.69425000     2.90000000
   89.55816000     5.69852000     5.80000000
   89.55618000     5.69995000     3.30000000
   89.55409000     5.70144000    -0.10000000
   89.55199000     5.70293000     0.60000000
   89.54990000     5.70442000    -2.40000000
   89.54781000     5.70592000    -2.30000000
   89.54576000     5.70737000    -0.70000000
   89.54371000     5.70883000    -0.20000000
   89.54166000     5.71029000     1.70000000
   89.53961000     5.71175000     1.30000000
   89.53751000     5.71323000    -1.40000000
   89.53541000     5.71471000    -0.30000000
   89.53331000     5.71619000     1.30000000
   89.53121000     5.71767000    -3.10000000
   89.52914000     5.71914000    -2.80000000
   89.52707000     5.72060000    -0.30000000
   89.52500000     5.72206000     0.70000000
   89.52294000     5.72352000    -0.90000000
   89.52086000     5.72500000     2.40000000
   89.51878000     5.72647000     1.30000000
   89.51671000     5.72795000     0.50000000
   89.51463000     5.72943000    -1.70000000
   89.51253000     5.73092000     1.80000000
   89.50623000     5.73542000    -2.80000000
   89.50425000     5.73682000     0.30000000
   89.50227000     5.73822000     0.80000000
   89.50028000     5.73963000    -1.90000000
   89.49816000     5.74114000    -1.40000000
   89.49603000     5.74265000     0.80000000
   89.49390000     5.74416000     1.30000000
   89.49178000     5.74567000    -2.90000000
   89.48968000     5.74715000    -3.70000000
   89.48758000     5.74863000    -3.50000000
   89.48548000     5.75011000    -5.30000000
   89.48339000     5.75159000    -3.80000000
   89.48132000     5.75308000    -1.10000000
   89.47925000     5.75456000    -2.70000000
   89.47718000     5.75604000    -3.40000000
   89.47511000     5.75753000    -1.80000000
   89.47296000     5.75901000    -4.00000000
   89.47080000     5.76050000    -4.80000000
   89.46865000     5.76199000    -4.80000000
   89.46650000     5.76348000    -2.40000000
   89.46436000     5.76496000    -1.80000000
   89.46222000     5.76645000    -5.80000000
   89.46008000     5.76793000    -1.50000000
   89.45793000     5.76942000    -2.70000000
   89.45576000     5.77092000    -2.00000000
   89.44515000     5.77829000    -6.80000000
   89.44311000     5.77973000    -6.80000000
   89.44107000     5.78116000    -6.30000000
   89.43881000     5.78273000    -4.40000000
   89.43431000     5.78586000    -8.80000000
   89.43206000     5.78742000    -9.20000000
   89.43000000     5.78886000    -6.90000000
   89.42794000     5.79029000   -10.40000000
   89.42382000     5.79316000    -8.60000000
   89.42174000     5.79462000    -5.10000000
   89.41965000     5.79607000    -6.70000000
   89.41756000     5.79752000    -9.40000000
   89.41548000     5.79898000    -9.90000000
   89.41336000     5.80045000    -6.00000000
   89.41124000     5.80192000    -8.10000000
   89.40913000     5.80339000    -6.10000000
   89.40701000     5.80487000    -6.00000000
   89.40485000     5.80637000    -8.30000000
   89.40270000     5.80787000    -8.90000000
   89.40054000     5.80937000    -8.30000000
   89.39839000     5.81087000    -8.90000000
   89.39621000     5.81237000    -8.20000000
   89.39404000     5.81388000    -8.40000000
   89.39187000     5.81539000   -11.00000000
   89.38970000     5.81689000   -10.30000000
   89.38769000     5.81833000    -7.60000000
   89.38569000     5.81977000   -10.80000000
   89.38368000     5.82121000    -9.90000000
   89.38168000     5.82264000    -8.90000000
   89.37975000     5.82407000   -12.60000000
   89.37782000     5.82549000    -9.60000000
   89.37590000     5.82692000    -9.50000000
   89.37395000     5.82842000   -10.80000000
   89.37201000     5.82992000   -12.10000000
   89.37007000     5.83142000   -13.20000000
   89.36813000     5.83293000   -10.50000000
   89.36610000     5.83448000    -9.70000000
   89.36408000     5.83603000    -9.80000000
   89.36205000     5.83759000    -8.60000000
   89.36003000     5.83914000    -8.60000000
   89.35793000     5.84076000   -12.10000000
   89.35583000     5.84238000   -10.10000000
   89.35373000     5.84400000   -12.20000000
   89.35163000     5.84562000   -16.10000000
   89.34964000     5.84714000   -16.70000000
   89.34766000     5.84867000   -15.30000000
   89.34567000     5.85020000   -12.30000000
   89.34368000     5.85172000   -10.40000000
   89.34162000     5.85330000   -14.40000000
   89.33957000     5.85487000   -10.90000000
   89.33752000     5.85644000   -12.60000000
   89.33547000     5.85801000   -10.40000000
   89.33346000     5.85956000   -11.30000000
   89.33145000     5.86110000   -13.20000000
   89.32944000     5.86265000   -13.10000000
   89.32743000     5.86420000   -13.00000000
   89.32544000     5.86571000   -11.00000000
   89.32345000     5.86722000    -9.40000000
   89.32147000     5.86873000    -9.90000000
   89.31948000     5.87025000   -10.90000000
   89.31754000     5.87174000   -10.30000000
   89.31560000     5.87323000    -8.40000000
   89.31365000     5.87472000    -8.60000000
   89.30948000     5.87777000   -14.10000000
   89.30739000     5.87930000   -14.40000000
   89.30531000     5.88082000   -13.60000000
   89.30323000     5.88228000   -14.90000000
   89.30114000     5.88374000   -15.70000000
   89.29906000     5.88520000   -15.50000000
   89.29698000     5.88667000   -10.60000000
   89.29485000     5.88813000   -15.40000000
   89.29272000     5.88959000   -11.50000000
   89.29059000     5.89105000    -9.30000000
   89.28845000     5.89251000   -13.80000000
   89.28631000     5.89400000   -14.90000000
   89.28416000     5.89548000   -12.90000000
   89.28201000     5.89696000   -15.30000000
   89.27986000     5.89844000   -13.90000000
   89.27773000     5.89992000   -15.40000000
   89.27560000     5.90140000   -16.90000000
   89.27346000     5.90288000   -16.60000000
   89.27133000     5.90436000   -14.50000000
   89.26922000     5.90584000   -16.60000000
   89.26710000     5.90732000   -19.10000000
   89.26498000     5.90880000   -18.40000000
   89.26286000     5.91028000   -16.10000000
   89.26077000     5.91172000   -15.90000000
   89.25868000     5.91317000   -15.40000000
   89.25659000     5.91462000   -18.30000000
   89.25450000     5.91607000   -16.10000000
   89.25242000     5.91751000   -16.40000000
   89.25034000     5.91894000   -15.30000000
   89.24826000     5.92038000   -13.70000000
   89.24612000     5.92186000   -14.10000000
   89.24398000     5.92334000   -18.30000000
   89.24184000     5.92482000   -15.70000000
   89.23970000     5.92630000   -15.60000000
   89.23763000     5.92774000   -17.90000000
   89.23555000     5.92918000   -19.80000000
   89.23140000     5.93207000   -16.20000000
   89.22929000     5.93354000   -11.40000000
   89.22717000     5.93500000   -13.20000000
   89.22505000     5.93646000   -12.90000000
   89.22293000     5.93793000   -17.40000000
   89.22082000     5.93940000   -14.90000000
   89.21871000     5.94088000   -14.20000000
   89.21660000     5.94235000   -14.70000000
   89.19104000     5.96001000   -13.60000000
   89.18893000     5.96149000   -13.40000000
   89.18470000     5.96446000   -18.00000000
   89.18259000     5.96593000   -14.00000000
