  111.53720000   -20.23150000   -22.80000000
  111.51910000   -20.21620000   -22.90000000
  111.50100000   -20.20080000   -24.00000000
  111.48290000   -20.18550000   -25.30000000
  111.45750000   -20.16330000   -25.30000000
  111.44480000   -20.15220000   -26.80000000
  111.43210000   -20.14120000   -29.10000000
  111.41940000   -20.13010000   -30.50000000
  111.40670000   -20.11900000   -30.90000000
  111.39410000   -20.10790000   -31.20000000
  111.38140000   -20.09690000   -31.60000000
  111.34480000   -20.06590000   -29.90000000
  111.32650000   -20.05040000   -30.10000000
  111.30670000   -20.03370000   -32.80000000
  111.28690000   -20.01700000   -31.80000000
  111.26710000   -20.00030000   -31.80000000
  111.24730000   -19.98360000   -31.90000000
  111.22760000   -19.96690000   -32.00000000
  111.20780000   -19.95020000   -31.00000000
  111.18800000   -19.93350000   -29.00000000
  111.16820000   -19.91690000   -29.10000000
  111.14840000   -19.90020000   -28.10000000
  111.12860000   -19.88350000   -26.10000000
  111.10880000   -19.86680000   -25.30000000
  111.08900000   -19.85010000   -23.30000000
  111.06930000   -19.83340000   -22.30000000
  111.04950000   -19.81670000   -21.30000000
  111.02970000   -19.80000000   -19.30000000
  111.00990000   -19.78330000   -17.30000000
  110.99010000   -19.76680000   -13.40000000
  110.97030000   -19.75030000    -8.40000000
  110.95060000   -19.73390000    -5.50000000
  110.93080000   -19.71750000    -4.50000000
  110.91110000   -19.70110000    -2.50000000
  110.89130000   -19.68470000    -1.50000000
  110.87160000   -19.66820000    -0.70000000
  110.85180000   -19.65180000     0.40000000
  110.83210000   -19.63540000     1.30000000
  110.81230000   -19.61900000     0.20000000
  110.79260000   -19.60260000    -0.90000000
  110.77280000   -19.58620000    -1.00000000
  110.75310000   -19.56970000    -3.10000000
  110.73330000   -19.55330000    -4.40000000
  110.71210000   -19.53790000    -9.20000000
  110.69080000   -19.52250000   -13.40000000
  110.66950000   -19.50720000   -21.80000000
  110.64830000   -19.49180000   -23.90000000
  110.62700000   -19.47640000   -26.10000000
  110.58420000   -19.44540000   -26.00000000
  110.56260000   -19.42980000   -21.10000000
  110.54110000   -19.41410000   -18.30000000
  110.51950000   -19.39850000   -13.30000000
  110.49790000   -19.38290000    -9.40000000
  110.47640000   -19.36730000    -6.40000000
  110.45480000   -19.35170000    -3.50000000
  110.43330000   -19.33610000     0.60000000
  110.41170000   -19.32040000     2.50000000
  110.39010000   -19.30480000     4.40000000
  110.36860000   -19.28920000     7.30000000
  110.34700000   -19.27360000     9.20000000
  110.32550000   -19.25800000    10.10000000
  110.30390000   -19.24240000     7.90000000
  110.28230000   -19.22680000     6.70000000
  110.26080000   -19.21110000     3.50000000
  110.23930000   -19.19650000     0.70000000
  110.21800000   -19.18280000    -2.60000000
  110.19630000   -19.16880000    -6.00000000
  110.17460000   -19.15480000    -9.30000000
  110.15290000   -19.14080000   -10.60000000
  110.13130000   -19.12680000   -13.90000000
  110.10960000   -19.11280000   -14.10000000
  110.08790000   -19.09890000   -14.30000000
  110.06620000   -19.08490000   -14.60000000
  110.04450000   -19.07090000   -14.80000000
  110.02280000   -19.05690000   -15.10000000
  110.00110000   -19.04290000   -16.30000000
  109.97940000   -19.02890000   -14.40000000
  109.95770000   -19.01500000   -12.70000000
  109.93610000   -19.00100000   -11.90000000
  109.91440000   -18.98700000   -11.20000000
  109.89270000   -18.97300000    -9.40000000
  109.87100000   -18.95900000    -7.60000000
  109.72700000   -18.88210000    -6.20000000
  109.70720000   -18.86720000    -9.40000000
  109.68730000   -18.85220000   -11.70000000
  109.66750000   -18.83730000   -13.90000000
  109.64760000   -18.82240000   -21.30000000
  109.62770000   -18.80740000   -23.50000000
  109.60790000   -18.79250000   -26.80000000
  109.58800000   -18.77760000   -26.90000000
  109.56810000   -18.76260000   -27.10000000
  109.54830000   -18.74770000   -25.30000000
  109.52840000   -18.73280000   -25.50000000
  109.50860000   -18.71780000   -26.80000000
  109.48870000   -18.70290000   -27.90000000
  109.46880000   -18.68790000   -30.30000000
  109.44890000   -18.67290000   -30.60000000
  109.42900000   -18.65800000   -29.80000000
  109.40910000   -18.64300000   -29.00000000
  109.38920000   -18.62800000   -30.30000000
  109.36930000   -18.61300000   -30.40000000
  109.34940000   -18.59800000   -27.50000000
  109.32950000   -18.58300000   -25.80000000
  109.30960000   -18.56800000   -26.90000000
  109.28970000   -18.55300000   -27.10000000
  109.26980000   -18.53800000   -29.40000000
  109.24990000   -18.52300000   -28.60000000
  109.23000000   -18.50800000   -28.80000000
  109.21010000   -18.49300000   -30.00000000
  109.19020000   -18.47800000   -29.30000000
  109.17030000   -18.46310000   -29.40000000
  109.15040000   -18.44810000   -29.60000000
  109.13050000   -18.43310000   -28.80000000
  109.11060000   -18.41810000   -29.00000000
  108.96230000   -18.31720000   -16.00000000
  108.94390000   -18.30220000   -15.30000000
  108.92550000   -18.28710000   -12.40000000
  108.90710000   -18.27210000   -10.60000000
  108.88870000   -18.25700000   -15.90000000
  108.87040000   -18.24200000   -19.10000000
  108.85200000   -18.22690000   -24.40000000
  108.83360000   -18.21190000   -24.60000000
  108.81520000   -18.19690000   -26.90000000
  108.79680000   -18.18180000   -26.10000000
  108.77840000   -18.16680000   -27.30000000
  108.76010000   -18.15170000   -26.50000000
  108.74170000   -18.13670000   -26.80000000
  108.72230000   -18.12290000   -30.60000000
  108.70290000   -18.10920000   -30.90000000
  108.68350000   -18.09550000   -30.30000000
  108.66420000   -18.08170000   -30.50000000
  108.64480000   -18.06800000   -30.80000000
  108.62540000   -18.05430000   -32.10000000
  108.60600000   -18.04060000   -34.50000000
  108.58660000   -18.02680000   -35.80000000
  108.56730000   -18.01310000   -35.00000000
  108.54790000   -17.99940000   -33.30000000
  108.52850000   -17.98560000   -31.50000000
  108.50910000   -17.97190000   -30.80000000
  108.48980000   -17.95820000   -32.10000000
  108.47040000   -17.94450000   -31.30000000
  108.45100000   -17.93070000   -31.60000000
  108.43160000   -17.91700000   -31.90000000
  108.41230000   -17.90330000   -32.30000000
  108.35580000   -17.86350000   -24.10000000
  108.33730000   -17.85050000   -23.40000000
  108.31880000   -17.83750000   -22.80000000
  108.30030000   -17.82440000   -21.00000000
  108.28170000   -17.81140000   -17.30000000
  108.26320000   -17.79840000   -17.60000000
  108.24470000   -17.78540000   -17.90000000
  108.15220000   -17.66420000   -15.10000000
  108.13770000   -17.64650000   -15.20000000
  108.12320000   -17.62870000   -14.30000000
  108.10880000   -17.61100000   -14.40000000
  108.08080000   -17.57640000   -18.50000000
  108.06640000   -17.55870000   -17.50000000
  108.05200000   -17.54110000   -17.60000000
  108.03770000   -17.52340000   -16.80000000
  108.02330000   -17.50570000   -15.90000000
  107.87610000   -17.35010000   -20.60000000
  107.85820000   -17.33720000   -21.00000000
  107.84030000   -17.32420000   -22.40000000
  107.82240000   -17.31130000   -23.80000000
  107.80490000   -17.29860000   -24.30000000
  107.78730000   -17.28590000   -24.80000000
  107.76980000   -17.27320000   -27.10000000
  107.75220000   -17.26050000   -26.50000000
  107.73470000   -17.24790000   -26.90000000
  107.71710000   -17.23520000   -26.30000000
  107.69960000   -17.22250000   -26.60000000
  107.68200000   -17.20980000   -28.00000000
  107.66450000   -17.19710000   -27.30000000
  107.64690000   -17.18440000   -27.80000000
  107.62940000   -17.17180000   -27.10000000
  107.61190000   -17.15910000   -26.40000000
  107.59430000   -17.14640000   -28.80000000
  107.57680000   -17.13370000   -30.30000000
  107.55920000   -17.12100000   -29.60000000
  107.54170000   -17.10830000   -31.00000000
  107.52310000   -17.09310000   -32.80000000
  107.50460000   -17.07800000   -30.90000000
  107.48630000   -17.06290000   -29.60000000
  107.46800000   -17.04790000   -27.90000000
  107.44970000   -17.03290000   -27.10000000
  107.43140000   -17.01790000   -25.30000000
  107.41310000   -17.00290000   -22.50000000
  107.39490000   -16.98780000   -20.80000000
  107.37660000   -16.97280000   -19.00000000
  107.35830000   -16.95780000   -20.30000000
  107.34000000   -16.94280000   -20.50000000
  107.32170000   -16.92780000   -21.80000000
  107.30340000   -16.91280000   -21.10000000
  107.28510000   -16.89770000   -20.30000000
  107.26680000   -16.88270000   -20.60000000
  107.24850000   -16.86770000   -18.80000000
  107.23020000   -16.85270000   -18.10000000
  107.21190000   -16.83770000   -17.30000000
  107.19360000   -16.82270000   -20.80000000
  107.17530000   -16.80760000   -22.00000000
  107.15620000   -16.79190000   -23.50000000
  107.13700000   -16.77620000   -23.80000000
  107.11780000   -16.76050000   -26.00000000
  107.09860000   -16.74480000   -26.30000000
  107.06020000   -16.71340000   -31.80000000
  107.04100000   -16.69770000   -31.00000000
  107.02190000   -16.68200000   -30.30000000
  107.00270000   -16.66630000   -29.50000000
  106.98350000   -16.65060000   -28.80000000
  106.96430000   -16.63490000   -27.90000000
  106.94510000   -16.61920000   -26.10000000
  106.92590000   -16.60350000   -25.40000000
  106.90670000   -16.58780000   -25.60000000
  106.88760000   -16.57210000   -26.90000000
  106.86840000   -16.55640000   -28.10000000
  106.84920000   -16.54070000   -30.40000000
  106.83000000   -16.52500000   -32.80000000
  106.81060000   -16.51180000   -33.00000000
  106.79110000   -16.49870000   -32.30000000
  106.77170000   -16.48550000   -31.60000000
  106.75220000   -16.47230000   -30.90000000
  106.73280000   -16.45910000   -30.30000000
  106.71330000   -16.44600000   -29.60000000
  106.69390000   -16.43280000   -29.00000000
  106.67450000   -16.41960000   -28.30000000
  106.65500000   -16.40640000   -29.80000000
  106.63560000   -16.39330000   -27.10000000
  106.61610000   -16.38010000   -29.50000000
  106.59670000   -16.36690000   -29.90000000
  106.57720000   -16.35380000   -29.30000000
  106.55780000   -16.34060000   -28.60000000
  106.53840000   -16.32740000   -26.90000000
  106.51890000   -16.31420000   -26.30000000
  106.49950000   -16.30110000   -25.60000000
  106.48000000   -16.28790000   -25.00000000
  106.46020000   -16.27440000   -25.30000000
  106.44040000   -16.26100000   -24.80000000
  106.42060000   -16.24750000   -24.00000000
  106.40080000   -16.23410000   -25.40000000
  106.38100000   -16.22060000   -26.80000000
  106.36120000   -16.20710000   -27.30000000
  106.34150000   -16.19380000   -25.30000000
  106.32180000   -16.18040000   -26.80000000
  106.30210000   -16.16700000   -25.00000000
  106.28250000   -16.15360000   -25.40000000
  106.26280000   -16.14030000   -25.80000000
  106.24310000   -16.12690000   -29.30000000
  106.22340000   -16.11350000   -27.50000000
  106.20370000   -16.10020000   -27.90000000
  106.18400000   -16.08680000   -27.30000000
  106.16440000   -16.07340000   -25.60000000
  106.14470000   -16.06000000   -21.90000000
  106.12500000   -16.04670000   -21.30000000
  106.10600000   -16.03360000   -19.10000000
  106.08700000   -16.02060000   -20.50000000
  106.06790000   -16.00750000   -21.90000000
  106.04890000   -15.99450000   -22.30000000
  106.02990000   -15.98140000   -21.80000000
  106.01090000   -15.96840000   -21.10000000
  105.99180000   -15.95530000   -20.50000000
  105.97280000   -15.94220000   -20.90000000
  105.95380000   -15.92920000   -20.30000000
  105.93480000   -15.91610000   -19.60000000
  105.91570000   -15.90310000   -18.00000000
  105.89670000   -15.89000000   -17.40000000
  105.87770000   -15.87700000   -17.80000000
  105.85870000   -15.86390000   -17.10000000
  105.83970000   -15.85090000   -17.50000000
  105.84700000   -15.72120000   -44.30000000
  105.84830000   -15.70110000   -43.30000000
  105.84970000   -15.68090000   -42.30000000
  105.85100000   -15.66070000   -41.30000000
  105.85240000   -15.64060000   -40.50000000
  105.85370000   -15.62040000   -40.50000000
  105.85510000   -15.60030000   -41.60000000
  105.85640000   -15.58010000   -41.80000000
  105.85770000   -15.55990000   -40.80000000
  105.85910000   -15.53980000   -39.80000000
  105.86040000   -15.51960000   -38.80000000
  105.86180000   -15.49940000   -37.00000000
  105.86310000   -15.47930000   -36.00000000
  105.86450000   -15.45910000   -36.00000000
  105.86580000   -15.43900000   -36.10000000
  105.86730000   -15.41830000   -38.00000000
  105.86870000   -15.39770000   -40.10000000
  105.87010000   -15.37710000   -39.30000000
  105.87160000   -15.35650000   -42.30000000
  105.87300000   -15.33590000   -41.50000000
  105.87440000   -15.31530000   -41.50000000
  105.87590000   -15.29460000   -40.50000000
  105.87730000   -15.27400000   -39.60000000
  105.87870000   -15.25340000   -39.60000000
  105.88010000   -15.23280000   -41.80000000
  105.88160000   -15.21220000   -43.00000000
  105.88300000   -15.19150000   -43.00000000
  105.88440000   -15.17090000   -43.00000000
  105.88590000   -15.15030000   -45.10000000
  105.88730000   -15.12970000   -46.30000000
  105.88870000   -15.10910000   -46.30000000
  105.89020000   -15.08850000   -47.50000000
  105.89440000   -15.02700000   -42.80000000
  105.89580000   -15.00650000   -41.80000000
  105.89720000   -14.98610000   -39.80000000
  105.89860000   -14.96570000   -33.80000000
  105.90000000   -14.94520000   -27.80000000
  105.90140000   -14.92480000   -23.80000000
  105.90270000   -14.90440000   -18.80000000
  105.90410000   -14.88390000   -12.90000000
  105.90550000   -14.86350000    -6.90000000
  105.90690000   -14.84300000     2.30000000
  105.90830000   -14.82260000     9.40000000
  105.91250000   -14.76130000    25.30000000
  105.91390000   -14.74090000    26.30000000
  105.91530000   -14.72040000    19.90000000
  105.91670000   -14.70000000    12.70000000
  105.91960000   -14.67860000    10.40000000
  105.92260000   -14.65710000     2.30000000
  105.92560000   -14.63570000    -6.20000000
  105.92860000   -14.61430000   -12.40000000
  105.93160000   -14.59290000   -19.50000000
  105.93760000   -14.55000000   -26.80000000
  105.94060000   -14.52860000   -27.80000000
  105.94350000   -14.50710000   -29.90000000
  105.94650000   -14.48570000   -30.00000000
  105.94950000   -14.46430000   -28.10000000
  105.95250000   -14.44280000   -29.30000000
  105.95550000   -14.42140000   -27.30000000
  105.95850000   -14.40000000   -25.30000000
  105.96140000   -14.37860000   -23.30000000
  105.96440000   -14.35710000   -21.40000000
  105.96740000   -14.33570000   -19.40000000
  105.97040000   -14.31430000   -16.50000000
  105.97330000   -14.29360000   -12.90000000
  105.97610000   -14.27290000    -9.90000000
  105.97900000   -14.25220000    -5.10000000
  105.98180000   -14.23150000    -1.00000000
  105.98460000   -14.21080000     3.00000000
  105.98750000   -14.19010000     6.00000000
  105.99030000   -14.16940000     6.90000000
  105.99320000   -14.14870000     7.70000000
  105.99600000   -14.12800000     1.40000000
  105.99890000   -14.10730000    -2.80000000
  106.00170000   -14.08660000    -7.20000000
  106.00460000   -14.06590000    -7.30000000
  106.00740000   -14.04520000    -7.50000000
  106.01030000   -14.02450000    -9.60000000
  106.01310000   -14.00380000   -11.80000000
  106.01600000   -13.98310000   -12.90000000
  106.01880000   -13.96240000   -14.20000000
  106.02170000   -13.94170000   -14.30000000
  106.02360000   -13.91940000   -17.60000000
  106.02550000   -13.89720000   -16.80000000
  106.02750000   -13.87500000   -15.90000000
  106.02940000   -13.85280000   -14.90000000
  106.03140000   -13.83060000   -13.90000000
  106.03330000   -13.80830000   -13.10000000
  106.03520000   -13.78610000   -11.10000000
  106.03720000   -13.76390000   -11.20000000
  106.03910000   -13.74170000   -12.30000000
  106.04100000   -13.71940000   -15.40000000
  106.04300000   -13.69720000   -16.50000000
  106.04490000   -13.67500000   -20.80000000
  106.04690000   -13.65280000   -23.90000000
  106.04880000   -13.63050000   -26.00000000
  106.05070000   -13.60830000   -27.10000000
  106.05270000   -13.58610000   -24.30000000
  106.05460000   -13.56390000   -23.30000000
  106.05650000   -13.54170000   -19.30000000
  106.05850000   -13.51930000   -19.40000000
  106.06040000   -13.49700000   -17.40000000
  106.06240000   -13.47470000   -14.60000000
  106.07610000   -13.31850000    -7.10000000
  106.07800000   -13.29620000    -3.10000000
  106.08000000   -13.27390000     5.10000000
  106.08190000   -13.25160000    14.10000000
  106.08390000   -13.22930000    23.10000000
  106.08580000   -13.20690000    36.30000000
  106.08780000   -13.18460000    44.30000000
  106.08970000   -13.16230000    46.30000000
  106.09170000   -13.14000000    39.00000000
  106.09460000   -13.11670000    28.10000000
  106.09760000   -13.09330000    14.80000000
  106.10050000   -13.07000000     3.50000000
  106.10350000   -13.04660000    -7.00000000
  106.10640000   -13.02330000    -9.10000000
  106.10940000   -13.00000000   -12.30000000
  106.11230000   -12.97660000   -15.40000000
  106.11520000   -12.95330000   -14.40000000
  106.11820000   -12.93000000   -15.60000000
  106.11420000   -12.81390000   -11.40000000
  106.11890000   -12.79120000    -8.60000000
  106.12370000   -12.76850000    -7.70000000
  106.12850000   -12.74590000    -4.80000000
  106.13330000   -12.72320000    -1.80000000
  106.13820000   -12.70000000    -2.50000000
  106.14310000   -12.67670000    -5.80000000
  106.14800000   -12.65350000    -5.90000000
  106.15290000   -12.63030000    -7.10000000
  106.15790000   -12.60700000    -7.20000000
  106.16280000   -12.58380000    -6.20000000
  106.16770000   -12.56060000    -6.40000000
  106.17260000   -12.53730000    -5.60000000
  106.17760000   -12.51410000    -4.70000000
  106.18250000   -12.49090000    -4.80000000
  106.18740000   -12.46760000    -5.00000000
  106.19230000   -12.44440000    -7.10000000
  106.19720000   -12.42120000    -9.30000000
  106.20220000   -12.39790000   -10.40000000
  106.20710000   -12.37470000   -12.70000000
  106.21210000   -12.35120000   -11.60000000
  106.21700000   -12.32780000   -10.70000000
  106.22200000   -12.30440000    -9.90000000
  106.22700000   -12.28090000    -8.90000000
  106.23200000   -12.25750000   -10.10000000
  106.23700000   -12.23400000    -9.30000000
  106.24190000   -12.21060000   -10.40000000
  106.25010000   -12.17010000    -9.70000000
  106.25490000   -12.14720000    -9.40000000
  106.25980000   -12.12430000    -9.70000000
  106.26280000   -12.10780000   -12.60000000
  106.26770000   -12.08470000   -10.10000000
  106.27260000   -12.06160000   -10.30000000
  106.27740000   -12.03850000   -10.40000000
  106.28230000   -12.01550000   -10.60000000
  106.28720000   -11.99240000   -10.80000000
  106.29210000   -11.96930000   -12.90000000
  106.29690000   -11.94620000   -17.30000000
  106.30180000   -11.92310000   -18.40000000
  106.30670000   -11.90000000   -18.60000000
  106.30980000   -11.87550000   -24.10000000
  106.31300000   -11.85110000   -23.30000000
  106.31620000   -11.82660000   -26.40000000
  106.31930000   -11.80210000   -25.50000000
  106.32250000   -11.77770000   -25.80000000
  106.32570000   -11.75320000   -25.80000000
  106.32880000   -11.72870000   -26.00000000
  106.33200000   -11.70430000   -25.10000000
  106.33520000   -11.67980000   -25.30000000
  106.33830000   -11.65530000   -25.40000000
  106.34150000   -11.63090000   -25.50000000
  106.34470000   -11.60640000   -24.80000000
  106.34790000   -11.58190000   -21.80000000
  106.35100000   -11.55750000   -16.80000000
  106.35420000   -11.53300000    -6.90000000
  106.35740000   -11.50850000     3.30000000
  106.35890000   -11.49630000     9.90000000
  106.36050000   -11.48400000    17.40000000
  106.36370000   -11.45960000    29.50000000
  106.36680000   -11.43530000    32.30000000
  106.36990000   -11.41100000    22.90000000
  106.37300000   -11.38670000     9.60000000
  106.37620000   -11.36240000    -1.90000000
  106.37930000   -11.33810000   -10.40000000
  106.38240000   -11.31380000   -15.70000000
  106.38550000   -11.28960000   -19.80000000
  106.38860000   -11.26530000   -22.00000000
  106.39170000   -11.24100000   -25.30000000
  106.39490000   -11.21670000   -26.50000000
  106.39800000   -11.19240000   -25.80000000
  106.40110000   -11.16810000   -25.90000000
  106.40420000   -11.14380000   -24.00000000
  106.40730000   -11.11950000   -22.30000000
  106.41040000   -11.09520000   -22.40000000
  106.41360000   -11.07100000   -21.50000000
  106.41670000   -11.04670000   -20.80000000
  106.41990000   -11.02430000   -18.60000000
  106.42320000   -11.00160000   -16.80000000
  106.42650000   -10.97900000   -14.90000000
  106.42970000   -10.95640000   -11.20000000
  106.43300000   -10.93370000    -9.40000000
  106.43850000   -10.89250000    -9.20000000
  106.45250000   -10.83020000    -4.70000000
  106.45740000   -10.80880000    -5.00000000
  106.46240000   -10.78730000    -4.30000000
  106.46730000   -10.76590000    -5.70000000
  106.47220000   -10.74450000    -5.00000000
  106.47710000   -10.72300000    -5.30000000
  106.48210000   -10.70160000    -4.60000000
  106.48700000   -10.68020000    -3.80000000
  106.49190000   -10.65870000    -3.10000000
  106.49690000   -10.63730000    -4.50000000
  106.50190000   -10.61550000    -6.40000000
  106.50700000   -10.59360000    -5.70000000
  106.51210000   -10.57180000    -5.00000000
  106.51710000   -10.54990000    -4.30000000
  106.52220000   -10.52810000    -3.50000000
  106.53240000   -10.48440000    -8.20000000
  106.53740000   -10.46260000    -5.50000000
  106.54250000   -10.44080000    -4.80000000
  106.54760000   -10.41890000    -3.00000000
  106.55260000   -10.39710000     0.90000000
  106.55770000   -10.37530000     3.50000000
  106.56280000   -10.35340000     4.30000000
  106.56790000   -10.33160000     5.00000000
  106.57290000   -10.30980000     5.70000000
  106.57800000   -10.28790000     4.30000000
  106.58310000   -10.26610000     4.00000000
  106.58810000   -10.24430000     2.60000000
  106.59370000   -10.22110000     2.60000000
  106.55960000   -10.07730000     0.50000000
  106.56490000   -10.05470000    -1.00000000
  106.57030000   -10.03210000    -1.30000000
  106.57560000   -10.00950000    -4.80000000
  106.58100000    -9.98690000    -8.20000000
  106.58630000    -9.96430000    -9.40000000
  106.59170000    -9.94170000    -9.80000000
  106.59800000    -9.91820000    -9.40000000
  106.60440000    -9.89480000    -8.70000000
  106.61070000    -9.87130000   -12.20000000
  106.61710000    -9.84790000   -17.50000000
  106.62350000    -9.82450000   -26.00000000
  106.62980000    -9.80100000   -35.50000000
  106.63990000    -9.77920000   -42.50000000
  106.64990000    -9.75730000   -50.00000000
  106.65990000    -9.73540000   -55.50000000
  106.67000000    -9.71360000   -60.00000000
  106.68000000    -9.69170000   -64.40000000
  106.69010000    -9.66990000   -69.90000000
  106.71010000    -9.62620000   -78.70000000
  106.72020000    -9.60430000   -83.20000000
  106.73020000    -9.58250000   -87.70000000
  106.74030000    -9.56060000   -91.10000000
  106.75030000    -9.53880000   -94.50000000
  106.75970000    -9.51800000   -97.70000000
  106.76910000    -9.49730000  -100.10000000
  106.77840000    -9.47660000  -100.50000000
  106.78780000    -9.45580000  -101.00000000
  106.79720000    -9.43510000   -99.30000000
  106.80660000    -9.41440000   -95.70000000
  106.81590000    -9.39360000   -88.90000000
  106.82530000    -9.37290000   -82.20000000
  106.83470000    -9.35220000   -75.50000000
  106.84410000    -9.33140000   -70.80000000
  106.85340000    -9.31070000   -67.20000000
  106.86280000    -9.29000000   -59.30000000
  106.87220000    -9.26920000   -52.60000000
  106.88160000    -9.24850000   -46.00000000
  106.89090000    -9.22780000   -40.30000000
  106.90030000    -9.20700000   -37.60000000
  106.90970000    -9.18630000   -36.00000000
  106.91910000    -9.16560000   -32.50000000
  106.92840000    -9.14490000   -28.90000000
  106.93770000    -9.12430000   -26.30000000
  106.94700000    -9.10360000   -25.80000000
  106.95640000    -9.08300000   -25.10000000
  106.96570000    -9.06230000   -28.60000000
  106.97500000    -9.04170000   -32.10000000
  106.98380000    -9.02190000   -37.00000000
  106.99270000    -9.00210000   -41.50000000
  107.00150000    -8.98230000   -45.00000000
  107.01030000    -8.96250000   -43.50000000
  107.01910000    -8.94270000   -39.80000000
  107.02800000    -8.92290000   -36.30000000
  107.03680000    -8.90310000   -39.80000000
  107.04560000    -8.88330000   -46.50000000
  107.05450000    -8.86350000   -53.00000000
  107.06330000    -8.84370000   -56.50000000
  107.07210000    -8.82390000   -58.00000000
  107.08100000    -8.80410000   -57.50000000
  107.08970000    -8.78440000   -61.30000000
  107.09840000    -8.76480000   -63.80000000
  107.10710000    -8.74510000   -62.30000000
  107.11590000    -8.72550000   -58.60000000
  107.12460000    -8.70590000   -56.10000000
  107.13330000    -8.68620000   -59.60000000
  107.14210000    -8.66660000   -64.30000000
  107.15080000    -8.64690000   -64.80000000
  107.15950000    -8.62730000   -64.30000000
  107.16830000    -8.60770000   -71.90000000
  107.17700000    -8.58800000   -76.50000000
  107.18570000    -8.56840000   -86.20000000
  107.20320000    -8.52910000  -114.60000000
  107.20750000    -8.51930000  -123.60000000
  107.21190000    -8.50950000  -132.40000000
  107.22060000    -8.48980000  -148.30000000
  107.22920000    -8.47040000  -163.10000000
  107.23750000    -8.45120000  -168.80000000
  107.24550000    -8.43240000  -174.10000000
  107.25350000    -8.41370000  -174.70000000
  107.26160000    -8.39490000  -173.10000000
  107.26960000    -8.37620000  -168.60000000
  107.27760000    -8.35750000  -163.90000000
  107.28560000    -8.33870000  -157.40000000
  107.29370000    -8.32000000  -149.80000000
  107.30170000    -8.30120000  -140.10000000
  107.30970000    -8.28250000  -131.40000000
  107.31770000    -8.26380000  -123.80000000
  107.28800000    -8.29990000  -144.90000000
  107.27440000    -8.31800000  -152.60000000
  107.26090000    -8.33620000  -159.20000000
  107.24740000    -8.35440000  -164.80000000
  107.23390000    -8.37260000  -170.30000000
  107.22040000    -8.39080000  -172.80000000
  107.10510000    -8.42080000  -152.20000000
  107.08070000    -8.42970000  -147.30000000
  107.05640000    -8.43860000  -139.40000000
  107.03200000    -8.44750000  -127.40000000
  107.00770000    -8.45640000  -116.40000000
  106.77950000    -8.28470000  -139.40000000
  106.77530000    -8.26110000  -149.10000000
  106.77110000    -8.23750000  -156.60000000
  106.76680000    -8.21390000  -162.10000000
  106.76260000    -8.19030000  -164.60000000
  106.75830000    -8.16670000  -164.90000000
  106.71880000    -8.11710000  -168.40000000
  106.72970000    -8.12590000  -169.60000000
  106.74070000    -8.13470000  -168.80000000
  106.75170000    -8.14350000  -170.10000000
  106.76270000    -8.15220000  -170.30000000
  106.77370000    -8.16100000  -170.40000000
  106.78470000    -8.16980000  -170.70000000
  106.79570000    -8.17860000  -169.90000000
  106.80670000    -8.18740000  -169.10000000
  106.81770000    -8.19620000  -166.30000000
  106.82870000    -8.20500000  -164.40000000
  106.85540000    -8.15800000  -166.60000000
  106.86400000    -8.13850000  -164.90000000
  106.87250000    -8.11910000  -163.60000000
  106.88140000    -8.09930000  -157.20000000
  106.89020000    -8.07940000  -151.60000000
  106.89910000    -8.05960000  -142.90000000
  106.76220000    -8.00020000  -124.30000000
  106.73630000    -7.99170000  -124.10000000
  106.71030000    -7.98320000  -123.90000000
  106.68440000    -7.97470000  -123.70000000
  106.65840000    -7.96620000  -123.50000000
  106.63250000    -7.95770000  -121.30000000
  106.55470000    -7.93210000  -114.70000000
  106.52870000    -7.92360000  -112.50000000
  106.50280000    -7.91510000  -110.20000000
  106.47690000    -7.90660000  -108.00000000
  106.45090000    -7.89810000  -106.70000000
  106.42500000    -7.88960000  -104.50000000
  106.39900000    -7.88100000  -102.20000000
  106.37310000    -7.87250000  -100.00000000
  106.34720000    -7.86400000   -98.70000000
  106.32120000    -7.85550000   -98.50000000
  106.29530000    -7.84700000   -98.30000000
  106.10030000    -7.91190000  -122.10000000
  106.07700000    -7.89760000  -125.20000000
  106.05360000    -7.88340000  -123.80000000
  106.03030000    -7.86920000  -121.40000000
  106.00700000    -7.85490000  -120.00000000
  105.98360000    -7.84070000  -118.70000000
  105.96030000    -7.82650000  -117.30000000
  105.88480000    -7.77990000  -123.30000000
  105.85960000    -7.76440000  -131.10000000
  105.83450000    -7.74890000  -135.80000000
  105.80930000    -7.73340000  -139.40000000
  105.78410000    -7.71790000  -143.30000000
  105.75900000    -7.70240000  -145.90000000
  105.73380000    -7.68690000  -147.60000000
  105.70860000    -7.67140000  -149.30000000
  105.68350000    -7.65590000  -150.90000000
  105.65830000    -7.64040000  -151.60000000
  105.63330000    -7.62500000  -150.70000000
  105.61020000    -7.60960000  -146.60000000
  105.58710000    -7.59430000  -148.30000000
  105.56390000    -7.57890000  -149.90000000
  105.54080000    -7.56350000  -150.60000000
  105.51760000    -7.54820000  -150.20000000
  105.48190000    -7.51150000  -156.90000000
  105.46400000    -7.49310000  -158.40000000
  105.44620000    -7.47480000  -160.10000000
  105.42830000    -7.45650000  -160.70000000
  105.41040000    -7.43810000  -163.30000000
  105.39260000    -7.41980000  -163.90000000
  105.37470000    -7.40140000  -163.40000000
  105.35680000    -7.38310000  -163.10000000
  105.33900000    -7.36470000  -162.70000000
  105.32110000    -7.34640000  -161.20000000
  105.30320000    -7.32800000  -158.80000000
  105.28550000    -7.30990000  -156.90000000
  105.26790000    -7.29180000  -152.40000000
  105.25020000    -7.27360000  -148.90000000
  105.23250000    -7.25550000  -146.40000000
  105.21490000    -7.23730000  -144.90000000
  105.19720000    -7.21920000  -143.60000000
  105.17950000    -7.20110000  -142.20000000
  105.16190000    -7.18290000  -139.70000000
  105.14420000    -7.16480000  -138.30000000
  105.12650000    -7.14660000  -136.90000000
  105.10890000    -7.12850000  -134.40000000
  105.09120000    -7.11040000  -131.90000000
  105.07350000    -7.09220000  -131.60000000
  105.05580000    -7.07410000  -137.30000000
  105.03820000    -7.05590000  -135.90000000
  105.02050000    -7.03780000  -133.40000000
  105.00280000    -7.01970000  -129.90000000
  104.98520000    -7.00150000  -128.60000000
  104.98050000    -6.94000000  -104.80000000
  104.97890000    -6.91940000   -99.30000000
  104.97740000    -6.89890000   -95.80000000
  104.97580000    -6.87840000   -94.30000000
  104.97430000    -6.85790000   -93.90000000
  104.97270000    -6.83730000   -96.50000000
  104.97120000    -6.81680000   -97.10000000
  104.96960000    -6.79630000   -96.70000000
  104.96800000    -6.77580000   -96.20000000
  104.96650000    -6.75520000   -94.80000000
  104.96490000    -6.73590000   -87.20000000
  104.96340000    -6.71670000   -79.70000000
  104.96180000    -6.69740000   -75.20000000
  104.96030000    -6.67810000   -71.70000000
  104.95870000    -6.65880000   -68.30000000
  104.95720000    -6.63960000   -62.80000000
  104.95560000    -6.62030000   -58.30000000
  104.95400000    -6.60100000   -53.80000000
  104.95250000    -6.58170000   -48.30000000
  104.95090000    -6.56250000   -42.80000000
  105.07890000    -6.47220000    78.80000000
  105.09650000    -6.46110000    81.10000000
  105.11420000    -6.45000000    77.20000000
  105.13180000    -6.43890000    71.30000000
  105.14940000    -6.42780000    66.40000000
  105.16710000    -6.41670000    58.50000000
  105.18470000    -6.40560000    51.50000000
  105.20240000    -6.39440000    47.60000000
  105.22000000    -6.38330000    47.80000000
  105.23980000    -6.37580000    56.80000000
  105.25960000    -6.36820000    62.00000000
  105.27930000    -6.36070000    69.40000000
  105.29910000    -6.35310000    72.60000000
  105.31890000    -6.34560000    72.80000000
  105.33870000    -6.33800000    69.80000000
  105.35840000    -6.33040000    65.90000000
  105.37820000    -6.32290000    63.00000000
  105.39800000    -6.31530000    62.00000000
  105.41780000    -6.30780000    62.30000000
  105.43760000    -6.30020000    62.30000000
  105.45730000    -6.29270000    64.60000000
  105.47710000    -6.28510000    69.90000000
  105.49690000    -6.27760000    72.00000000
  105.51670000    -6.27000000    69.10000000
  105.56110000    -6.25000000    73.00000000
  105.58330000    -6.24000000    72.20000000
  105.60560000    -6.23000000    73.40000000
  105.65170000    -6.20000000    73.90000000
  105.67500000    -6.18330000    68.10000000
  105.69830000    -6.16670000    60.10000000
  105.72170000    -6.15000000    55.30000000
  105.74500000    -6.13330000    55.80000000
  105.76830000    -6.11670000    56.00000000
  105.79170000    -6.10000000    56.30000000
  106.03570000    -5.78640000    49.10000000
  106.04380000    -5.75920000    48.60000000
  106.05200000    -5.73190000    47.00000000
  106.06010000    -5.70470000    43.50000000
  106.06820000    -5.67750000    44.00000000
  106.07630000    -5.65020000    43.50000000
  106.08440000    -5.62300000    40.80000000
  106.09260000    -5.59580000    44.30000000
  106.10070000    -5.56850000    51.00000000
  106.10880000    -5.54130000    52.50000000
  106.11690000    -5.51410000    52.00000000
  106.12510000    -5.48660000    52.50000000
  106.13330000    -5.45920000    52.00000000
  106.14150000    -5.43180000    48.50000000
  106.14970000    -5.40430000    46.80000000
  106.15790000    -5.37690000    45.30000000
  106.16610000    -5.34950000    44.60000000
  106.17420000    -5.32200000    44.10000000
  106.20060000    -5.27330000    43.30000000
  106.21540000    -5.25000000    43.60000000
  106.23020000    -5.22670000    44.00000000
  106.24500000    -5.20330000    44.50000000
  106.26110000    -5.18330000    45.10000000
  106.27720000    -5.16330000    45.50000000
  106.29330000    -5.14330000    44.80000000
  106.30940000    -5.12330000    44.00000000
  106.32560000    -5.10330000    44.50000000
  106.34170000    -5.08330000    44.80000000
  106.35540000    -5.06590000    42.80000000
  106.36910000    -5.04850000    42.00000000
  106.38280000    -5.03100000    40.10000000
  106.39650000    -5.01360000    39.50000000
  106.41030000    -4.99620000    39.80000000
  106.42400000    -4.97870000    40.00000000
  106.43770000    -4.96130000    38.30000000
  106.45140000    -4.94390000    36.50000000
  106.46510000    -4.92640000    35.60000000
  106.47890000    -4.90900000    38.00000000
  106.49260000    -4.89160000    40.30000000
  106.50630000    -4.87410000    40.50000000
  106.52000000    -4.85670000    39.80000000
  106.53370000    -4.83930000    36.00000000
  106.54740000    -4.82180000    35.30000000
  106.56120000    -4.80440000    35.50000000
  106.57490000    -4.78700000    37.80000000
  106.58860000    -4.76950000    41.10000000
  106.60220000    -4.75220000    43.10000000
  106.61580000    -4.73490000    43.50000000
  106.62940000    -4.71770000    40.50000000
  106.64300000    -4.70040000    38.80000000
  106.65660000    -4.68310000    37.00000000
  106.67020000    -4.66580000    34.30000000
  106.68380000    -4.64850000    31.30000000
  106.69740000    -4.63120000    31.60000000
  106.71100000    -4.61390000    29.80000000
  106.72460000    -4.59660000    24.90000000
  106.73820000    -4.57930000    20.10000000
  106.75180000    -4.56210000    18.30000000
  106.76540000    -4.54480000    17.50000000
  106.77890000    -4.52750000    15.80000000
  106.79250000    -4.51020000    16.00000000
  106.80610000    -4.49290000    16.30000000
  106.81970000    -4.47560000    18.50000000
  106.83330000    -4.45830000    24.80000000
  106.84700000    -4.44150000    28.30000000
  106.86060000    -4.42470000    30.50000000
  106.87420000    -4.40780000    32.80000000
  106.88780000    -4.39100000    35.00000000
  106.90140000    -4.37420000    35.30000000
  106.91500000    -4.35740000    35.50000000
  106.92860000    -4.34050000    36.80000000
  106.94230000    -4.32370000    38.00000000
  106.95590000    -4.30690000    38.30000000
  106.96950000    -4.29000000    36.50000000
  106.98310000    -4.27320000    36.60000000
  106.99670000    -4.25640000    37.80000000
  107.01040000    -4.23950000    39.10000000
  107.02400000    -4.22270000    39.30000000
  107.03760000    -4.20590000    41.60000000
  107.05120000    -4.18910000    43.80000000
  107.06480000    -4.17220000    46.10000000
  107.07840000    -4.15540000    46.30000000
  107.09210000    -4.13850000    44.80000000
  107.10580000    -4.12150000    44.00000000
  107.11950000    -4.10460000    43.10000000
  107.13320000    -4.08770000    39.30000000
  107.14690000    -4.07070000    37.50000000
  107.16060000    -4.05380000    35.60000000
  107.17430000    -4.03680000    33.80000000
  107.18800000    -4.01990000    33.00000000
  107.20170000    -4.00300000    33.30000000
  107.21540000    -3.98600000    36.50000000
  107.22910000    -3.96910000    38.80000000
  107.24280000    -3.95220000    38.00000000
  107.25650000    -3.93520000    38.10000000
  107.35060000    -3.80620000    30.40000000
  107.35700000    -3.77990000    31.80000000
  107.36340000    -3.75360000    34.10000000
  107.36990000    -3.72730000    34.50000000
  107.37630000    -3.70110000    34.80000000
  107.38270000    -3.67480000    36.00000000
  107.38920000    -3.64850000    36.30000000
  107.39560000    -3.62220000    36.60000000
  107.40200000    -3.59590000    37.00000000
  107.40850000    -3.56960000    36.30000000
  107.41490000    -3.54330000    36.50000000
  107.42130000    -3.51700000    37.80000000
  107.42780000    -3.49070000    38.10000000
  107.39930000    -3.41980000    40.60000000
  107.38670000    -3.39670000    40.80000000
  107.37220000    -3.37280000    35.30000000
  107.35780000    -3.34890000    34.50000000
  107.34330000    -3.32500000    34.80000000
  107.32890000    -3.30110000    31.90000000
  107.31440000    -3.27720000    30.10000000
  107.30000000    -3.25330000    29.30000000
  107.30000000    -3.19570000    26.90000000
  107.30000000    -3.16690000    27.30000000
  107.30000000    -3.13810000    27.50000000
  107.30000000    -3.10920000    27.80000000
  107.30000000    -3.08040000    28.10000000
  107.30000000    -3.05160000    27.30000000
  107.30000000    -3.02280000    26.60000000
  107.30000000    -2.99400000    27.90000000
  107.30000000    -2.96510000    28.10000000
  107.30000000    -2.93630000    28.40000000
  107.30000000    -2.90750000    28.80000000
  107.30000000    -2.87770000    28.90000000
  107.30000000    -2.84790000    30.30000000
  107.30000000    -2.81810000    29.50000000
  107.33100000    -2.74120000    27.90000000
  107.34640000    -2.71760000    30.30000000
  107.36190000    -2.69400000    30.40000000
  107.37740000    -2.67050000    31.60000000
  107.39290000    -2.64690000    32.80000000
  107.40830000    -2.62330000    33.00000000
  107.42380000    -2.59980000    37.30000000
  107.43930000    -2.57620000    39.50000000
  107.45480000    -2.55260000    44.80000000
  107.47020000    -2.52900000    46.00000000
  107.48570000    -2.50550000    45.30000000
  107.50120000    -2.48190000    38.30000000
  107.51670000    -2.45830000    38.50000000
  107.53100000    -2.43960000    30.30000000
  107.54530000    -2.42080000    31.50000000
  107.55960000    -2.40200000    34.80000000
  107.57390000    -2.38320000    33.80000000
  107.58820000    -2.36450000    30.90000000
  107.60250000    -2.34570000    26.90000000
  107.61680000    -2.32690000    23.00000000
  107.63110000    -2.30820000    18.00000000
  107.64540000    -2.28940000    19.30000000
  107.65970000    -2.27060000    23.40000000
  107.67400000    -2.25180000    24.50000000
  107.68830000    -2.23310000    25.80000000
  107.69950000    -2.21760000    25.50000000
  107.71070000    -2.20220000    25.60000000
  107.72190000    -2.18680000    28.80000000
  107.73300000    -2.17140000    28.90000000
  107.74420000    -2.15590000    26.00000000
  107.75540000    -2.14050000    25.00000000
  107.76670000    -2.12500000    25.40000000
  107.78000000    -2.10960000    31.00000000
  107.79330000    -2.09410000    32.30000000
  107.80660000    -2.07870000    32.30000000
  107.82000000    -2.06330000    31.30000000
  107.83330000    -2.04780000    29.40000000
  107.84660000    -2.03240000    27.40000000
  107.85990000    -2.01700000    26.50000000
  107.87320000    -2.00150000    28.80000000
  107.86460000    -1.94340000    19.40000000
  107.85840000    -1.92320000    15.60000000
  107.85230000    -1.90300000    12.60000000
  107.84610000    -1.88280000     9.70000000
  107.84000000    -1.86260000     3.60000000
  107.83390000    -1.84240000     2.80000000
  107.82770000    -1.82230000     2.80000000
  107.82150000    -1.80180000     7.90000000
  107.81530000    -1.78140000    13.20000000
  107.80910000    -1.76100000    18.30000000
  107.80290000    -1.74060000    20.40000000
  107.79670000    -1.72020000    21.60000000
  107.79050000    -1.69980000    20.60000000
  107.78430000    -1.67930000    21.80000000
  107.77810000    -1.65890000    21.90000000
  107.77190000    -1.63850000    23.00000000
  107.76570000    -1.61810000    26.30000000
  107.75950000    -1.59770000    28.30000000
  107.75330000    -1.57730000    28.40000000
  107.74710000    -1.55680000    30.60000000
  107.74090000    -1.53640000    32.80000000
  107.73470000    -1.51600000    32.80000000
  107.72850000    -1.49560000    33.00000000
  107.72230000    -1.47520000    34.00000000
  107.71610000    -1.45470000    34.10000000
  107.71000000    -1.43440000    31.20000000
  107.70380000    -1.41410000    26.30000000
  107.69760000    -1.39380000    24.30000000
  107.69140000    -1.37340000    22.30000000
  107.68520000    -1.35310000    20.30000000
  107.67910000    -1.33280000    19.40000000
  107.67290000    -1.31240000    18.50000000
  107.66670000    -1.29210000    17.50000000
  107.66060000    -1.27180000    17.60000000
  107.65440000    -1.25150000    18.70000000
  107.64820000    -1.23110000    21.80000000
  107.64200000    -1.21080000    21.90000000
  107.63580000    -1.19050000    22.00000000
  107.62970000    -1.17010000    21.00000000
  107.62350000    -1.14980000    18.10000000
  107.61730000    -1.12950000    18.10000000
  107.61110000    -1.10920000    19.30000000
  107.60500000    -1.08880000    20.30000000
  107.59910000    -1.06960000    21.30000000
  107.59320000    -1.05030000    21.30000000
  107.58730000    -1.03110000    21.30000000
  107.58140000    -1.01180000    20.30000000
  107.57550000    -0.99260000    20.40000000
  107.56960000    -0.97330000    23.50000000
  107.56380000    -0.95400000    20.50000000
  107.55790000    -0.93480000    20.60000000
  107.55200000    -0.91550000    21.60000000
  107.54610000    -0.89630000    22.80000000
  107.54020000    -0.87700000    25.80000000
  107.53430000    -0.85780000    26.90000000
  107.52840000    -0.83850000    27.00000000
  107.52260000    -0.81930000    27.00000000
  107.51670000    -0.80000000    26.00000000
  107.51100000    -0.78100000    24.80000000
  107.50540000    -0.76210000    23.80000000
  107.49970000    -0.74310000    20.80000000
  107.49440000    -0.72540000    22.60000000
  107.48910000    -0.70770000    24.80000000
  107.48370000    -0.69000000    25.80000000
  107.47890000    -0.67400000    23.00000000
  107.47400000    -0.65800000    22.00000000
  107.46920000    -0.64200000    22.00000000
  107.46430000    -0.62600000    21.00000000
  107.45940000    -0.61010000    21.10000000
  107.45460000    -0.59410000    21.10000000
  107.44970000    -0.57810000    21.10000000
  107.44490000    -0.56210000    23.30000000
  107.44000000    -0.54610000    23.30000000
  107.43520000    -0.53010000    23.30000000
  107.43030000    -0.51410000    24.30000000
  107.42540000    -0.49810000    25.30000000
  107.42060000    -0.48210000    26.40000000
  107.41570000    -0.46620000    26.40000000
  107.41090000    -0.45020000    26.40000000
  107.40610000    -0.43460000    27.80000000
  107.40140000    -0.41900000    27.80000000
  107.39660000    -0.40350000    28.80000000
  107.39190000    -0.38790000    28.90000000
  107.38710000    -0.37240000    28.90000000
  107.38240000    -0.35680000    28.90000000
  107.37770000    -0.34120000    28.90000000
  107.37290000    -0.32570000    28.90000000
  107.36820000    -0.31010000    28.90000000
  107.36340000    -0.29460000    27.90000000
  107.35870000    -0.27900000    26.90000000
  107.35390000    -0.26340000    24.90000000
  107.34920000    -0.24790000    24.90000000
  107.34440000    -0.23230000    24.90000000
  107.33970000    -0.21680000    27.00000000
  107.33500000    -0.20120000    27.00000000
  107.33020000    -0.18560000    26.00000000
  107.32550000    -0.17010000    26.00000000
  107.32090000    -0.15500000    26.40000000
  107.31630000    -0.14000000    29.50000000
  107.31170000    -0.12500000    30.50000000
  107.27430000    -0.10240000    30.80000000
  107.26180000    -0.09480000    32.80000000
  107.24940000    -0.08730000    33.80000000
  107.23690000    -0.07980000    33.80000000
  107.22440000    -0.07220000    33.80000000
  107.21200000    -0.06470000    38.00000000
  107.19950000    -0.05710000    38.00000000
  107.18710000    -0.04960000    38.00000000
  107.17460000    -0.04210000    39.00000000
  107.16210000    -0.03450000    39.00000000
  107.14970000    -0.02700000    40.00000000
  107.13720000    -0.01940000    40.00000000
  107.12480000    -0.01190000    40.00000000
  107.11230000    -0.00440000    39.00000000
  107.09980000     0.00320000    39.00000000
  107.08740000     0.01070000    39.00000000
  107.07490000     0.01830000    39.00000000
  107.06250000     0.02580000    39.00000000
  107.05000000     0.03330000    39.00000000
  107.03590000     0.04100000    34.50000000
  107.02180000     0.04870000    33.50000000
  107.00770000     0.05640000    32.50000000
  106.99360000     0.06410000    30.40000000
  106.97950000     0.07180000    30.40000000
  106.96540000     0.07950000    30.40000000
  106.95130000     0.08720000    30.40000000
  106.93720000     0.09490000    30.40000000
  106.92310000     0.10260000    29.30000000
  106.90900000     0.11030000    29.30000000
  106.89490000     0.11790000    29.30000000
  106.88080000     0.12560000    29.30000000
  106.86670000     0.13330000    29.30000000
  106.85360000     0.14330000    32.30000000
  106.84060000     0.15320000    33.30000000
  106.82760000     0.16310000    33.30000000
  106.81460000     0.17300000    33.30000000
  106.80160000     0.18290000    32.30000000
  106.78850000     0.19290000    32.30000000
  106.77550000     0.20280000    32.30000000
  106.76250000     0.21270000    32.30000000
  106.74950000     0.22260000    32.30000000
  106.73640000     0.23260000    32.30000000
  106.72340000     0.24250000    32.30000000
  106.71040000     0.25240000    30.10000000
  106.69740000     0.26230000    26.00000000
  106.68430000     0.27220000    24.00000000
  106.67130000     0.28220000    26.00000000
  106.65830000     0.29210000    27.00000000
  106.64530000     0.30200000    27.00000000
  106.63200000     0.31210000    28.40000000
  106.61880000     0.32220000    30.50000000
  106.60550000     0.33220000    35.50000000
