   73.72730000     1.53295000   -48.00000000
   73.74150000     1.53232000   -48.40000000
   73.75560000     1.53140000   -48.60000000
   73.76970000     1.53054000   -49.50000000
   73.78480000     1.52985000   -49.50000000
   73.79950000     1.52928000   -49.00000000
   73.81420000     1.52865000   -48.20000000
   73.82890000     1.52802000   -49.10000000
   73.84360000     1.52728000   -50.20000000
   73.85830000     1.52659000   -50.30000000
   73.87300000     1.52602000   -49.30000000
   73.88770000     1.52550000   -49.40000000
   73.90240000     1.52504000   -48.60000000
   73.91710000     1.52458000   -47.20000000
   73.93180000     1.52401000   -47.30000000
   73.94650000     1.52349000   -47.40000000
   73.96120000     1.52292000   -46.20000000
   73.97520000     1.52246000   -44.30000000
   73.98610000     1.52189000   -44.70000000
   73.99450000     1.52114000   -43.80000000
   74.00300000     1.52040000   -42.80000000
   74.02480000     1.51444000   -47.90000000
   74.02610000     1.51301000   -48.10000000
   74.02740000     1.51163000   -48.50000000
   74.02840000     1.51026000   -49.20000000
   74.02830000     1.50894000   -49.30000000
   74.02730000     1.50757000   -49.20000000
   74.02690000     1.50613000   -48.60000000
   74.02790000     1.50545000   -48.50000000
   74.02820000     1.50476000   -48.50000000
   74.02790000     1.50413000   -48.10000000
   74.02760000     1.50338000   -48.40000000
   74.02750000     1.50264000   -48.30000000
   74.02740000     1.50189000   -48.20000000
   74.02730000     1.50144000   -48.70000000
   74.02720000     1.50098000   -48.50000000
   74.02710000     1.50040000   -48.30000000
   74.02680000     1.49983000   -48.30000000
   74.02670000     1.49926000   -48.00000000
   74.02650000     1.49863000   -47.80000000
   74.02630000     1.49800000   -47.70000000
   74.02620000     1.49737000   -48.40000000
   74.02600000     1.49674000   -48.30000000
   74.02570000     1.49611000   -47.90000000
   74.02560000     1.49548000   -47.70000000
   74.02570000     1.49496000   -47.30000000
   74.05470000     1.48935000   -44.80000000
   74.06560000     1.48866000   -46.10000000
   74.07990000     1.48814000   -46.70000000
   74.09500000     1.48763000   -45.30000000
   74.11010000     1.48711000   -45.50000000
   74.12500000     1.48665000   -43.30000000
   74.14000000     1.48625000   -41.40000000
   74.15500000     1.48585000   -40.40000000
   74.16990000     1.48534000   -39.30000000
   74.18480000     1.48493000   -39.20000000
   74.19970000     1.48442000   -38.50000000
   74.21460000     1.48390000   -37.30000000
   74.22950000     1.48356000   -35.80000000
   74.24440000     1.48310000   -34.50000000
   74.25920000     1.48258000   -31.90000000
   74.27410000     1.48201000   -30.40000000
   74.28900000     1.48144000   -29.80000000
   74.30380000     1.48098000   -30.60000000
   74.31870000     1.48046000   -31.40000000
   74.33360000     1.47995000   -32.90000000
   74.34840000     1.47938000   -33.30000000
   74.36330000     1.47892000   -34.90000000
   74.37810000     1.47846000   -37.20000000
   74.39290000     1.47789000   -39.30000000
   74.40770000     1.47743000   -40.00000000
   74.42250000     1.47703000   -40.80000000
   74.43740000     1.47651000   -41.40000000
   74.45210000     1.47577000   -41.50000000
   74.46680000     1.47502000   -41.30000000
   74.48150000     1.47433000   -40.00000000
   74.49620000     1.47376000   -38.60000000
   74.51080000     1.47319000   -37.50000000
   74.52540000     1.47262000   -35.60000000
   74.54010000     1.47198000   -34.60000000
   74.55470000     1.47141000   -33.20000000
   74.56940000     1.47084000   -32.50000000
   74.58410000     1.47027000   -31.80000000
   74.59880000     1.46975000   -31.20000000
   74.61350000     1.46912000   -30.50000000
   74.62810000     1.46849000   -30.50000000
   74.64280000     1.46797000   -29.70000000
   74.65740000     1.46740000   -28.60000000
   74.67210000     1.46654000   -27.70000000
   74.68680000     1.46580000   -26.70000000
   74.70150000     1.46505000   -25.10000000
   74.71620000     1.46454000   -22.90000000
   74.73090000     1.46391000   -22.10000000
   74.74560000     1.46305000   -21.90000000
   74.76030000     1.46247000   -21.50000000
   74.77770000     1.46173000   -22.50000000
   74.79260000     1.46110000   -24.60000000
   74.80750000     1.46035000   -26.60000000
   74.82240000     1.45972000   -29.00000000
   74.83730000     1.45915000   -31.10000000
   74.85220000     1.45858000   -32.60000000
   74.86720000     1.45789000   -33.20000000
   74.88210000     1.45720000   -32.90000000
   74.89700000     1.45652000   -33.20000000
   74.91190000     1.45583000   -34.20000000
   74.92680000     1.45514000   -35.20000000
   74.94180000     1.45440000   -36.20000000
   74.95670000     1.45359000   -38.30000000
   74.97160000     1.45296000   -39.60000000
   74.98670000     1.45222000   -41.90000000
   75.00150000     1.45159000   -44.80000000
   75.01640000     1.45113000   -48.10000000
   75.03130000     1.45061000   -51.00000000
   75.04620000     1.44993000   -52.60000000
   75.06100000     1.44935000   -55.50000000
   75.07590000     1.44872000   -59.10000000
   75.09090000     1.44758000   -61.10000000
   75.10530000     1.44660000   -62.50000000
   75.11970000     1.44546000   -63.10000000
   75.13400000     1.44437000   -63.50000000
   75.14830000     1.44339000   -63.40000000
   75.16270000     1.44236000   -63.20000000
   75.17700000     1.44122000   -62.70000000
   75.19140000     1.44013000   -62.40000000
   75.20580000     1.43904000   -61.90000000
   75.22030000     1.43789000   -61.40000000
   75.23470000     1.43675000   -60.90000000
   75.24920000     1.43554000   -61.00000000
   75.26360000     1.43429000   -61.30000000
   75.27800000     1.43308000   -60.80000000
   75.29240000     1.43194000   -61.10000000
   75.30680000     1.43067000   -60.40000000
   75.32110000     1.42953000   -58.90000000
   75.33550000     1.42833000   -57.70000000
   75.34990000     1.42712000   -56.90000000
   75.36500000     1.42603000   -55.50000000
   75.37950000     1.42506000   -54.50000000
   75.39400000     1.42414000   -54.30000000
   75.40850000     1.42311000   -53.40000000
   75.42300000     1.42208000   -52.80000000
   75.43750000     1.42111000   -52.10000000
   75.45190000     1.42013000   -50.70000000
   75.46640000     1.41910000   -49.70000000
   75.48090000     1.41818000   -49.70000000
   75.49540000     1.41721000   -49.40000000
   75.50990000     1.41612000   -48.90000000
   75.52430000     1.41498000   -48.60000000
   75.53880000     1.41394000   -48.80000000
   75.55330000     1.41297000   -49.30000000
   75.56780000     1.41211000   -48.90000000
   75.58230000     1.41131000   -47.60000000
   75.59670000     1.41051000   -46.70000000
   75.61120000     1.40959000   -45.40000000
   75.62560000     1.40867000   -45.10000000
   75.64010000     1.40770000   -44.30000000
   75.65460000     1.40678000   -44.30000000
   75.67040000     1.40638000   -44.70000000
   75.68530000     1.40610000   -44.20000000
   75.70030000     1.40581000   -43.20000000
   75.71530000     1.40552000   -41.90000000
   75.73020000     1.40524000   -41.60000000
   75.74510000     1.40495000   -41.20000000
   75.76010000     1.40461000   -39.40000000
   75.77440000     1.40415000   -37.80000000
   75.78850000     1.40375000   -37.80000000
   75.80270000     1.40346000   -37.60000000
   75.81680000     1.40312000   -36.90000000
   75.83100000     1.40271000   -37.70000000
   75.84510000     1.40231000   -38.10000000
   75.85930000     1.40191000   -38.50000000
   75.87340000     1.40151000   -39.30000000
   75.88760000     1.40123000   -40.10000000
   75.90170000     1.40094000   -40.60000000
   75.91580000     1.40059000   -40.50000000
   75.92990000     1.40037000   -41.20000000
   75.94410000     1.40002000   -42.30000000
   75.95830000     1.39956000   -42.30000000
   75.97240000     1.39905000   -42.30000000
   75.98660000     1.39859000   -42.20000000
   76.00070000     1.39813000   -42.20000000
   76.01490000     1.39756000   -42.20000000
   76.02900000     1.39699000   -42.40000000
   76.04300000     1.39647000   -43.40000000
   76.05710000     1.39601000   -44.30000000
   76.07230000     1.39492000   -42.70000000
   76.08640000     1.39401000   -41.30000000
   76.10060000     1.39315000   -40.20000000
   76.11480000     1.39234000   -39.60000000
   76.12900000     1.39148000   -38.90000000
   76.14310000     1.39057000   -39.00000000
   76.15730000     1.38971000   -40.50000000
   76.17140000     1.38896000   -41.60000000
   76.18560000     1.38816000   -42.50000000
   76.19970000     1.38725000   -43.80000000
   76.21390000     1.38621000   -44.80000000
   76.22810000     1.38524000   -46.20000000
   76.24230000     1.38432000   -46.70000000
   76.25650000     1.38341000   -47.20000000
   76.27070000     1.38266000   -47.30000000
   76.28500000     1.38174000   -46.70000000
   76.29920000     1.38083000   -46.90000000
   76.31340000     1.37985000   -46.20000000
   76.32760000     1.37894000   -45.60000000
   76.34170000     1.37796000   -46.50000000
   76.35590000     1.37705000   -45.80000000
   76.37000000     1.37619000   -44.50000000
   76.38420000     1.37527000   -44.10000000
   76.39840000     1.37441000   -43.00000000
   76.41260000     1.37361000   -42.70000000
   76.42680000     1.37292000   -43.70000000
   76.44110000     1.37212000   -44.40000000
   76.45520000     1.37132000   -45.40000000
   76.46940000     1.37046000   -45.10000000
   76.48360000     1.36960000   -44.60000000
   76.49780000     1.36874000   -45.20000000
   76.51250000     1.36776000   -45.90000000
   76.52620000     1.36696000   -45.30000000
   76.54010000     1.36622000   -45.30000000
   76.55380000     1.36541000   -45.40000000
   76.56770000     1.36450000   -46.10000000
   76.58160000     1.36347000   -46.10000000
   76.59540000     1.36249000   -47.10000000
   76.60940000     1.36163000   -47.80000000
   76.62340000     1.36083000   -47.60000000
   76.63720000     1.35997000   -48.80000000
   76.65110000     1.35906000   -48.20000000
   76.66500000     1.35814000   -48.00000000
   76.67890000     1.35728000   -48.00000000
   76.69270000     1.35648000   -48.50000000
   76.70670000     1.35573000   -48.40000000
   76.72060000     1.35499000   -48.80000000
   76.73450000     1.35430000   -49.50000000
   76.74850000     1.35350000   -49.10000000
   76.76240000     1.35270000   -49.60000000
   76.77630000     1.35195000   -50.10000000
   76.79020000     1.35115000   -50.30000000
   76.80420000     1.35040000   -50.30000000
   76.81800000     1.34960000   -51.50000000
   76.83190000     1.34868000   -52.70000000
   76.84580000     1.34783000   -52.70000000
   76.85960000     1.34697000   -53.20000000
   76.87340000     1.34622000   -54.20000000
   76.88730000     1.34548000   -55.20000000
   76.90100000     1.34462000   -55.90000000
   76.91480000     1.34364000   -57.50000000
   76.92860000     1.34284000   -58.80000000
   76.94230000     1.34198000   -59.10000000
   76.94230000     1.33299000   -59.80000000
   76.93550000     1.33207000   -60.00000000
   76.92870000     1.33121000   -60.00000000
   76.92180000     1.33041000   -60.40000000
   76.91500000     1.32972000   -60.50000000
   76.90980000     1.32932000   -60.40000000
   76.90300000     1.32897000   -60.10000000
   76.89630000     1.32857000   -59.80000000
   76.89040000     1.32823000   -59.80000000
   76.88700000     1.32789000   -60.00000000
   76.88520000     1.32760000   -59.10000000
   76.88320000     1.32731000   -59.20000000
   76.88850000     1.32439000   -61.30000000
   76.89220000     1.32382000   -61.10000000
   76.89600000     1.32330000   -59.70000000
   76.89980000     1.32279000   -60.40000000
   76.90410000     1.32038000   -60.60000000
   76.90280000     1.32015000   -61.00000000
   76.90180000     1.32032000   -60.30000000
   76.90200000     1.32027000   -59.90000000
   76.90300000     1.31975000   -60.40000000
   76.90320000     1.31946000   -60.30000000
   76.90340000     1.31918000   -59.40000000
   76.90400000     1.31889000   -58.80000000
   76.90460000     1.31855000   -58.90000000
   76.90510000     1.31832000   -59.20000000
   76.90530000     1.31815000   -60.10000000
   76.90550000     1.31792000   -59.50000000
   76.90580000     1.31775000   -59.60000000
   76.90620000     1.31752000   -59.40000000
   76.90680000     1.31723000   -59.00000000
   76.90750000     1.31700000   -58.50000000
   76.90840000     1.31654000   -57.70000000
   76.90930000     1.31591000   -58.00000000
   76.91100000     1.31425000   -58.30000000
   76.91180000     1.31339000   -58.10000000
   76.91270000     1.31270000   -58.00000000
   76.91380000     1.31213000   -58.00000000
   76.91490000     1.31156000   -58.10000000
   76.91600000     1.31081000   -59.10000000
   76.91610000     1.31001000   -59.10000000
   76.91520000     1.30955000   -59.00000000
   76.91380000     1.30921000   -59.10000000
   76.91100000     1.30875000   -59.60000000
   76.90750000     1.30835000   -59.40000000
   76.88270000     1.30600000   -56.60000000
   76.87540000     1.30525000   -56.60000000
   76.86800000     1.30457000   -55.90000000
   76.86080000     1.30382000   -54.80000000
   76.85350000     1.30291000   -54.40000000
   76.84640000     1.30210000   -53.50000000
   76.83930000     1.30130000   -52.50000000
   76.83210000     1.30050000   -52.30000000
   76.82480000     1.29970000   -52.00000000
   76.81700000     1.29889000   -51.00000000
   76.80910000     1.29809000   -51.00000000
   76.80120000     1.29735000   -50.20000000
   76.79330000     1.29660000   -50.00000000
   76.78540000     1.29580000   -49.90000000
   76.77750000     1.29506000   -50.40000000
   76.76970000     1.29437000   -51.00000000
   76.76180000     1.29368000   -50.90000000
   76.75390000     1.29299000   -50.60000000
   76.74600000     1.29242000   -51.20000000
   76.73810000     1.29185000   -51.50000000
   76.73100000     1.29110000   -51.40000000
   76.72320000     1.29047000   -50.30000000
   76.71540000     1.28990000   -49.00000000
   76.70770000     1.28927000   -49.10000000
   76.70000000     1.28858000   -49.20000000
   76.69220000     1.28789000   -50.00000000
   76.68440000     1.28732000   -50.10000000
   76.67810000     1.28360000   -49.20000000
   76.67380000     1.27569000   -51.60000000
   76.67000000     1.26664000   -52.00000000
   76.66610000     1.25764000   -52.60000000
   76.66310000     1.24962000   -53.90000000
   76.66190000     1.24360000   -55.30000000
   76.66130000     1.23868000   -56.10000000
   76.66070000     1.23375000   -55.60000000
   76.66010000     1.22882000   -55.40000000
   76.65960000     1.22390000   -55.80000000
   76.65920000     1.21897000   -56.00000000
   76.65860000     1.21410000   -56.30000000
   76.65820000     1.20923000   -56.30000000
   76.65760000     1.20430000   -56.60000000
   76.65710000     1.19949000   -56.20000000
   76.65650000     1.19467000   -56.30000000
   76.65590000     1.18975000   -56.70000000
   76.65530000     1.18488000   -56.10000000
   76.65480000     1.17995000   -56.60000000
   76.65430000     1.17496000   -56.30000000
   76.65380000     1.16998000   -56.50000000
   76.65340000     1.16505000   -57.00000000
   76.65080000     1.16116000   -56.90000000
   76.64470000     1.15949000   -56.20000000
   76.63710000     1.15909000   -56.80000000
   76.62960000     1.15869000   -57.10000000
   76.62230000     1.15818000   -57.00000000
   76.61480000     1.15760000   -56.60000000
   76.60740000     1.15692000   -57.30000000
   76.60010000     1.15634000   -57.50000000
   76.59280000     1.15583000   -57.40000000
   76.58540000     1.15543000   -57.90000000
   76.57800000     1.15497000   -58.10000000
   76.57070000     1.15445000   -58.70000000
   76.56340000     1.15399000   -58.10000000
   76.55610000     1.15365000   -58.10000000
   76.54880000     1.15319000   -58.10000000
   76.54130000     1.15279000   -58.40000000
   76.53380000     1.15239000   -59.10000000
   76.52640000     1.15187000   -58.60000000
   76.51890000     1.15130000   -58.90000000
   76.51140000     1.15067000   -59.10000000
   76.50390000     1.14998000   -59.30000000
   76.49630000     1.14935000   -58.60000000
   76.49060000     1.14884000   -58.90000000
   76.48350000     1.14872000   -59.20000000
   76.47640000     1.14861000   -58.40000000
   76.46930000     1.14838000   -58.40000000
   76.46220000     1.14815000   -57.50000000
   76.45500000     1.14798000   -58.40000000
   76.44790000     1.14781000   -58.10000000
   76.44080000     1.14769000   -58.30000000
   76.43360000     1.14758000   -59.20000000
   76.42640000     1.14752000   -59.10000000
   76.41930000     1.14740000   -59.00000000
   76.41210000     1.14729000   -59.30000000
   76.40510000     1.14700000   -59.70000000
   76.39810000     1.14677000   -59.50000000
   76.39100000     1.14660000   -59.50000000
   76.38390000     1.14626000   -59.40000000
   76.37680000     1.14603000   -60.30000000
   76.36960000     1.14580000   -59.70000000
   76.36250000     1.14557000   -59.70000000
   76.35530000     1.14540000   -59.80000000
   76.34810000     1.14534000   -59.80000000
   76.34050000     1.14517000   -59.80000000
   76.33280000     1.14500000   -59.90000000
   76.32510000     1.14471000   -60.00000000
   76.31740000     1.14448000   -60.50000000
   76.30960000     1.14425000   -60.40000000
   76.30190000     1.14402000   -60.30000000
   76.29420000     1.14380000   -60.30000000
   76.28650000     1.14362000   -60.80000000
   76.27880000     1.14339000   -60.40000000
   76.27110000     1.14322000   -60.60000000
   76.26330000     1.14339000   -60.20000000
   76.25540000     1.14391000   -60.00000000
   76.24770000     1.14454000   -59.80000000
   76.24000000     1.14517000   -58.70000000
   76.23230000     1.14592000   -59.40000000
   76.22460000     1.14672000   -59.60000000
   76.21700000     1.14758000   -59.70000000
   76.20930000     1.14826000   -59.50000000
   76.20150000     1.14895000   -59.50000000
   76.19430000     1.14924000   -59.30000000
   76.18630000     1.14947000   -59.20000000
   76.17830000     1.14998000   -58.50000000
   76.17030000     1.15027000   -58.30000000
   76.16230000     1.15050000   -58.10000000
   76.15430000     1.15061000   -57.30000000
   76.14630000     1.15084000   -57.50000000
   76.13840000     1.15119000   -56.90000000
   76.13030000     1.15164000   -56.40000000
   76.12230000     1.15210000   -56.40000000
   76.11420000     1.15245000   -56.10000000
   76.10630000     1.15291000   -55.40000000
   76.09830000     1.15342000   -55.10000000
   76.09030000     1.15399000   -54.20000000
   76.08230000     1.15440000   -54.10000000
   76.07420000     1.15474000   -54.20000000
   76.06630000     1.15508000   -53.40000000
   76.05830000     1.15554000   -53.30000000
   76.05030000     1.15600000   -53.10000000
   76.04230000     1.15640000   -52.50000000
   76.03430000     1.15697000   -52.20000000
   76.02650000     1.15772000   -50.90000000
   76.01830000     1.15869000   -50.80000000
   76.01010000     1.15967000   -49.90000000
   76.00180000     1.16047000   -49.80000000
   75.99350000     1.16127000   -49.60000000
   75.98530000     1.16207000   -48.70000000
   75.97710000     1.16287000   -48.60000000
   75.96840000     1.16379000   -48.50000000
   75.95950000     1.16477000   -48.30000000
   75.95060000     1.16568000   -48.70000000
   75.94170000     1.16671000   -49.00000000
   75.93290000     1.16763000   -50.10000000
   75.92420000     1.16866000   -50.60000000
   75.91560000     1.16958000   -50.40000000
   75.90700000     1.17038000   -51.30000000
   75.89840000     1.17124000   -51.60000000
   75.88970000     1.17204000   -51.70000000
   75.88110000     1.17273000   -51.20000000
   75.87250000     1.17336000   -50.40000000
   75.86390000     1.17405000   -49.80000000
   75.85540000     1.17479000   -49.80000000
   75.84690000     1.17577000   -49.40000000
   75.83840000     1.17680000   -49.00000000
   75.82980000     1.17777000   -49.00000000
   75.82120000     1.17880000   -48.60000000
   75.81260000     1.17989000   -48.00000000
   75.80400000     1.18092000   -47.80000000
   75.79540000     1.18190000   -48.50000000
   75.78810000     1.18299000   -47.60000000
   75.78020000     1.18413000   -47.30000000
   75.77220000     1.18528000   -46.70000000
   75.76440000     1.18631000   -45.80000000
   75.75650000     1.18745000   -45.70000000
   75.74850000     1.18849000   -45.30000000
   75.74070000     1.18946000   -44.30000000
   75.73280000     1.19043000   -44.60000000
   75.72490000     1.19141000   -44.30000000
   75.71700000     1.19244000   -43.90000000
   75.70920000     1.19341000   -43.70000000
   75.70140000     1.19439000   -43.70000000
   75.69360000     1.19536000   -43.60000000
   75.68570000     1.19628000   -43.70000000
   75.67780000     1.19714000   -43.80000000
   75.67000000     1.19805000   -43.50000000
   75.66210000     1.19903000   -42.50000000
   75.65420000     1.20012000   -42.50000000
   75.64640000     1.20121000   -42.40000000
   75.63850000     1.20229000   -42.20000000
   75.63080000     1.20338000   -42.00000000
   75.62300000     1.20418000   -42.30000000
   75.61510000     1.20493000   -42.50000000
   75.60730000     1.20596000   -42.70000000
   75.59960000     1.20693000   -43.00000000
   75.59180000     1.20791000   -43.60000000
   75.58390000     1.20894000   -44.50000000
   75.57600000     1.20980000   -45.10000000
   75.56820000     1.21066000   -45.50000000
   75.56030000     1.21163000   -46.00000000
   75.55250000     1.21255000   -46.70000000
   75.54470000     1.21347000   -47.10000000
   75.53700000     1.21456000   -47.60000000
   75.52910000     1.21559000   -49.00000000
   75.52120000     1.21627000   -49.70000000
   75.51340000     1.21690000   -50.40000000
   75.50550000     1.21765000   -50.70000000
   75.49770000     1.21862000   -50.30000000
   75.48980000     1.21948000   -50.20000000
   75.48190000     1.22023000   -50.00000000
   75.47400000     1.22103000   -49.70000000
   75.46610000     1.22212000   -49.90000000
   75.45820000     1.22303000   -50.20000000
   75.45030000     1.22395000   -49.90000000
   75.44240000     1.22481000   -50.20000000
   75.43440000     1.22567000   -49.80000000
   75.42650000     1.22664000   -49.60000000
   75.41860000     1.22762000   -49.70000000
   75.41070000     1.22854000   -50.30000000
   75.40280000     1.22945000   -51.10000000
   75.39560000     1.23008000   -50.40000000
   75.38710000     1.23003000   -50.60000000
   75.37860000     1.22991000   -49.90000000
   75.37010000     1.22980000   -50.20000000
   75.36150000     1.22991000   -51.30000000
   75.35300000     1.22991000   -51.50000000
   75.34460000     1.22980000   -52.10000000
   75.33620000     1.22974000   -53.20000000
   75.35030000     1.24601000   -49.70000000
   75.36300000     1.25100000   -49.90000000
   75.38800000     1.26085000   -50.40000000
   75.40050000     1.26572000   -48.20000000
   75.41310000     1.27071000   -47.50000000
   75.42590000     1.27569000   -47.30000000
   75.43870000     1.28073000   -47.40000000
   75.45200000     1.28583000   -48.70000000
   75.46460000     1.29093000   -48.70000000
   75.47720000     1.29609000   -48.80000000
   75.48970000     1.30124000   -49.10000000
   75.50230000     1.30640000   -48.80000000
   75.51480000     1.31139000   -48.30000000
   75.52730000     1.31648000   -48.20000000
   75.53990000     1.32164000   -47.80000000
   75.55230000     1.32685000   -47.80000000
   75.56480000     1.33195000   -47.90000000
   75.57720000     1.33723000   -48.20000000
   75.58960000     1.34255000   -48.10000000
   75.60200000     1.34777000   -47.80000000
   75.61270000     1.35201000   -47.20000000
   75.62030000     1.35436000   -46.70000000
   75.62620000     1.35602000   -46.00000000
   75.63210000     1.35768000   -45.50000000
   75.65210000     1.35728000   -47.70000000
   75.65260000     1.35539000   -48.00000000
   75.65430000     1.35327000   -48.10000000
   75.65460000     1.35143000   -48.70000000
   75.65430000     1.35012000   -48.50000000
   75.65360000     1.34920000   -49.00000000
   75.65280000     1.34828000   -48.90000000
   75.65200000     1.34731000   -49.10000000
   75.65110000     1.34628000   -48.80000000
   75.65050000     1.34513000   -48.80000000
   75.65070000     1.34393000   -47.00000000
   75.65160000     1.34278000   -47.80000000
   75.65230000     1.34158000   -49.10000000
   75.65260000     1.34032000   -49.10000000
   75.65290000     1.33917000   -48.00000000
   75.65300000     1.33797000   -49.70000000
   75.65290000     1.33677000   -49.60000000
   75.65280000     1.33556000   -49.50000000
   75.65280000     1.33453000   -48.50000000
   75.65280000     1.33344000   -49.50000000
   75.65270000     1.33230000   -49.00000000
   75.65330000     1.33127000   -47.80000000
   75.65440000     1.33035000   -48.00000000
   75.67730000     1.33768000   -45.70000000
   75.68560000     1.34026000   -45.30000000
   75.69380000     1.34284000   -45.30000000
   75.70190000     1.34559000   -45.90000000
   75.71180000     1.34937000   -45.80000000
   75.72430000     1.35464000   -46.00000000
   75.73720000     1.36020000   -45.20000000
   75.75020000     1.36564000   -44.30000000
   75.76320000     1.37092000   -44.10000000
   75.77610000     1.37619000   -43.60000000
   75.78900000     1.38152000   -44.40000000
   75.80190000     1.38673000   -43.70000000
   75.81480000     1.39200000   -42.50000000
   75.82770000     1.39716000   -41.80000000
   75.84050000     1.40231000   -42.00000000
   75.85350000     1.40747000   -41.60000000
   75.86650000     1.41245000   -41.90000000
   75.87940000     1.41750000   -42.00000000
   75.89230000     1.42265000   -43.10000000
   75.90530000     1.42770000   -43.20000000
   75.91810000     1.43297000   -43.50000000
   75.93090000     1.43841000   -44.10000000
   75.94370000     1.44397000   -44.70000000
   75.95650000     1.44953000   -45.10000000
   75.96940000     1.45491000   -45.40000000
   75.98230000     1.46030000   -44.20000000
   75.99510000     1.46580000   -44.80000000
   76.00810000     1.47118000   -45.30000000
   76.02120000     1.47651000   -45.30000000
   76.03430000     1.48184000   -45.20000000
   76.04730000     1.48728000   -44.60000000
   76.06030000     1.49267000   -43.90000000
   76.07330000     1.49805000   -42.80000000
   76.08630000     1.50344000   -42.40000000
   76.09940000     1.50877000   -41.40000000
   76.11240000     1.51416000   -40.90000000
   76.12550000     1.51966000   -41.50000000
   76.13850000     1.52516000   -43.00000000
   76.15150000     1.53054000   -44.40000000
   76.16450000     1.53587000   -47.10000000
   76.17750000     1.54114000   -48.50000000
   76.19060000     1.54647000   -49.70000000
   76.20370000     1.55174000   -50.80000000
   76.21690000     1.55690000   -50.60000000
   76.23010000     1.56217000   -50.60000000
   76.24330000     1.56761000   -51.50000000
   76.25640000     1.57300000   -52.10000000
   76.26950000     1.57833000   -52.90000000
   76.28270000     1.58365000   -53.60000000
   76.29580000     1.58904000   -54.10000000
   76.30890000     1.59454000   -53.30000000
   76.32190000     1.59993000   -53.50000000
   76.33500000     1.60526000   -53.70000000
   76.34820000     1.61064000   -52.50000000
   76.36850000     1.63327000   -57.10000000
   76.36020000     1.63551000   -57.30000000
   76.35180000     1.63763000   -56.70000000
   76.34340000     1.63969000   -57.80000000
   76.33480000     1.64187000   -57.70000000
   76.32640000     1.64410000   -58.40000000
   76.31780000     1.64634000   -59.30000000
   76.30930000     1.64857000   -59.50000000
   76.30090000     1.65092000   -59.50000000
   76.29240000     1.65310000   -60.00000000
   76.28390000     1.65522000   -60.10000000
   76.27550000     1.65739000   -60.10000000
   76.26700000     1.65951000   -60.20000000
   76.26160000     1.66089000   -60.80000000
   76.25230000     1.66301000   -60.00000000
   76.24310000     1.66513000   -60.00000000
   76.23400000     1.66725000   -59.60000000
   76.22470000     1.66943000   -59.70000000
   76.21540000     1.67155000   -59.60000000
   76.20620000     1.67372000   -58.90000000
   76.19690000     1.67590000   -58.40000000
   76.18770000     1.67808000   -57.40000000
   76.17840000     1.68008000   -56.40000000
   76.16920000     1.68209000   -55.30000000
   76.16010000     1.68415000   -54.60000000
   76.15100000     1.68621000   -53.40000000
   76.14170000     1.68828000   -51.50000000
   76.13240000     1.69040000   -50.60000000
   76.12320000     1.69240000   -48.60000000
   76.11390000     1.69452000   -47.30000000
   76.10460000     1.69647000   -46.50000000
   76.09530000     1.69836000   -45.90000000
   76.08610000     1.70048000   -46.10000000
   76.07680000     1.70260000   -45.90000000
   76.06770000     1.70455000   -45.30000000
   76.05800000     1.70655000   -45.10000000
   76.04830000     1.70856000   -44.60000000
   76.03860000     1.71074000   -44.80000000
   76.02880000     1.71286000   -44.90000000
   76.01910000     1.71515000   -45.00000000
   76.00930000     1.71733000   -45.10000000
   75.99950000     1.71950000   -45.70000000
   75.98970000     1.72180000   -46.90000000
   75.97990000     1.72397000   -48.00000000
   75.97020000     1.72615000   -48.40000000
   75.96040000     1.72844000   -49.10000000
   75.95080000     1.73079000   -49.50000000
   75.94110000     1.73314000   -49.30000000
   75.93140000     1.73526000   -49.70000000
   75.92170000     1.73749000   -49.50000000
   75.92330000     1.75789000   -48.00000000
   75.93510000     1.76293000   -48.00000000
   75.94670000     1.76838000   -48.60000000
   75.95980000     1.77359000   -49.40000000
   75.97240000     1.77863000   -50.20000000
   75.98490000     1.78385000   -51.40000000
   75.99740000     1.78900000   -52.10000000
   76.00990000     1.79433000   -53.80000000
   76.02230000     1.79972000   -55.30000000
   76.03470000     1.80510000   -56.60000000
   76.04710000     1.81055000   -56.60000000
   76.05960000     1.81582000   -56.90000000
   76.07210000     1.82115000   -56.10000000
   76.08460000     1.82647000   -57.30000000
   76.09700000     1.83180000   -56.80000000
   76.10940000     1.83719000   -57.20000000
   76.12180000     1.84263000   -57.00000000
   76.13420000     1.84819000   -56.70000000
   76.14660000     1.85369000   -54.90000000
   76.15900000     1.85919000   -55.10000000
   76.17150000     1.86452000   -54.50000000
   76.18440000     1.86996000   -53.10000000
   76.19670000     1.87546000   -52.30000000
   76.20890000     1.88091000   -51.90000000
   76.22120000     1.88629000   -50.80000000
   76.23350000     1.89162000   -49.60000000
   76.24590000     1.89689000   -49.20000000
   76.25820000     1.90222000   -48.50000000
   76.27050000     1.90761000   -47.50000000
   76.28280000     1.91305000   -47.10000000
   76.29500000     1.91855000   -46.30000000
   76.30720000     1.92405000   -44.60000000
   76.31940000     1.92949000   -44.10000000
   76.33170000     1.93488000   -43.30000000
   76.34400000     1.94021000   -40.90000000
   76.35630000     1.94553000   -40.20000000
   76.36850000     1.95098000   -41.90000000
   76.38070000     1.95654000   -42.50000000
   76.39300000     1.96198000   -44.50000000
   76.40520000     1.96736000   -47.10000000
   76.41740000     1.97275000   -48.40000000
   76.42970000     1.97814000   -49.60000000
   76.44200000     1.98347000   -50.30000000
   76.45500000     1.98902000   -50.90000000
   76.46730000     1.99492000   -51.30000000
   76.47960000     2.00094000   -53.30000000
   76.49190000     2.00690000   -55.20000000
   76.50410000     2.01280000   -57.50000000
   76.51640000     2.01876000   -57.70000000
   76.52870000     2.02449000   -58.10000000
   76.54060000     2.03022000   -58.50000000
   76.55260000     2.03606000   -58.60000000
   76.56460000     2.04168000   -59.60000000
   76.57660000     2.04735000   -59.80000000
   76.58870000     2.05291000   -59.30000000
   76.60060000     2.05852000   -59.40000000
   76.61580000     2.07863000   -62.80000000
   76.60620000     2.07909000   -62.10000000
   76.59670000     2.07949000   -62.60000000
   76.58730000     2.08001000   -61.60000000
   76.57780000     2.08058000   -61.00000000
   76.56840000     2.08098000   -61.10000000
   76.55900000     2.08138000   -60.90000000
   76.54970000     2.08196000   -60.90000000
   76.54030000     2.08253000   -60.60000000
   76.53090000     2.08305000   -60.60000000
   76.52150000     2.08350000   -60.60000000
   76.51220000     2.08390000   -60.50000000
   76.50290000     2.08442000   -61.40000000
   76.49350000     2.08494000   -61.30000000
   76.48410000     2.08534000   -62.20000000
   76.47470000     2.08585000   -61.80000000
   76.46530000     2.08625000   -62.20000000
   76.45580000     2.08671000   -63.30000000
   76.44640000     2.08700000   -63.10000000
   76.43690000     2.08729000   -63.50000000
   76.42740000     2.08763000   -64.00000000
   76.41780000     2.08791000   -64.50000000
   76.40840000     2.08832000   -64.20000000
   76.39880000     2.08883000   -64.60000000
   76.38940000     2.08946000   -64.50000000
   76.38010000     2.09003000   -65.70000000
   76.37070000     2.09021000   -66.50000000
   76.36130000     2.09032000   -66.20000000
   76.35190000     2.09055000   -65.70000000
   76.34240000     2.09072000   -65.80000000
   76.33290000     2.09084000   -65.50000000
   76.32340000     2.09101000   -64.70000000
   76.31380000     2.09141000   -63.40000000
   76.30420000     2.09193000   -63.50000000
   76.29450000     2.09210000   -63.20000000
   76.28490000     2.09244000   -62.40000000
   76.27540000     2.09307000   -62.30000000
   76.26580000     2.09364000   -62.30000000
   76.25630000     2.09422000   -62.10000000
   76.24690000     2.09479000   -62.00000000
   76.23740000     2.09525000   -61.40000000
   76.22780000     2.09548000   -61.00000000
   76.21820000     2.09576000   -60.40000000
   76.20860000     2.09611000   -58.90000000
   76.19890000     2.09651000   -58.80000000
   76.18920000     2.09691000   -58.90000000
   76.17960000     2.09731000   -57.70000000
   76.17000000     2.09771000   -56.70000000
   76.16030000     2.09817000   -55.50000000
   76.15070000     2.09863000   -55.50000000
   76.14100000     2.09909000   -54.30000000
   76.13140000     2.09960000   -53.30000000
   76.12170000     2.10012000   -52.80000000
   76.11210000     2.10069000   -53.10000000
   76.10240000     2.10126000   -53.10000000
   76.09270000     2.10184000   -52.50000000
   76.08310000     2.10252000   -51.60000000
   76.07340000     2.10321000   -51.20000000
   76.06370000     2.10379000   -50.70000000
   76.05390000     2.10430000   -51.50000000
   76.04590000     2.10407000   -50.50000000
   76.03590000     2.10402000   -49.40000000
   76.02600000     2.10396000   -48.30000000
   76.01610000     2.10413000   -46.60000000
   76.01240000     2.10757000   -44.90000000
   76.01980000     2.11341000   -47.10000000
   76.03190000     2.11851000   -48.50000000
   76.04370000     2.12361000   -50.00000000
   76.05530000     2.12877000   -50.90000000
   76.06690000     2.13404000   -51.30000000
   76.07860000     2.13902000   -52.50000000
   76.09030000     2.14412000   -53.30000000
   76.10190000     2.14939000   -52.20000000
   76.11350000     2.15461000   -52.50000000
   76.12530000     2.15959000   -52.60000000
   76.13700000     2.16475000   -52.50000000
   76.14870000     2.17008000   -53.20000000
   76.16050000     2.17529000   -54.90000000
   76.17220000     2.18050000   -55.10000000
   76.18390000     2.18578000   -56.60000000
   76.19570000     2.19093000   -57.40000000
   76.20730000     2.19615000   -58.10000000
   76.22030000     2.20130000   -58.10000000
   76.23250000     2.20657000   -57.80000000
   76.24480000     2.21173000   -58.50000000
   76.25710000     2.21700000   -58.30000000
   76.26940000     2.22233000   -59.90000000
   76.28170000     2.22772000   -59.80000000
   76.29400000     2.23322000   -59.00000000
   76.30640000     2.23860000   -59.40000000
   76.31890000     2.24370000   -59.50000000
   76.33130000     2.24909000   -59.30000000
   76.34350000     2.25470000   -59.50000000
   76.35600000     2.25986000   -58.50000000
   76.36850000     2.26490000   -58.80000000
   76.38100000     2.27012000   -58.70000000
   76.39340000     2.27550000   -57.50000000
   76.40580000     2.28077000   -56.80000000
   76.41830000     2.28599000   -55.90000000
   76.43070000     2.29126000   -56.00000000
   76.44350000     2.29739000   -55.60000000
   76.45550000     2.30358000   -54.10000000
   76.46760000     2.30971000   -53.30000000
   76.47950000     2.31595000   -51.90000000
   76.49150000     2.32214000   -51.20000000
   76.50360000     2.32827000   -50.80000000
   76.51560000     2.33446000   -49.30000000
   76.52760000     2.34065000   -48.50000000
   76.53960000     2.34689000   -48.10000000
   76.55170000     2.35302000   -48.10000000
   76.56370000     2.35921000   -46.80000000
   76.57580000     2.36540000   -46.10000000
   76.58780000     2.36729000   -46.80000000
   76.59970000     2.36299000   -46.60000000
   76.61130000     2.35686000   -47.20000000
   76.62300000     2.35096000   -47.90000000
   76.63470000     2.34500000   -48.70000000
   76.64630000     2.33904000   -48.80000000
   76.65790000     2.33314000   -49.00000000
   76.66960000     2.32718000   -49.20000000
   76.68130000     2.32111000   -50.00000000
   76.69390000     2.31526000   -50.40000000
   76.70590000     2.30913000   -50.70000000
   76.71790000     2.30300000   -50.90000000
   76.72980000     2.29676000   -50.70000000
   76.74190000     2.29074000   -51.50000000
   76.75400000     2.28484000   -52.20000000
   76.76610000     2.27894000   -52.30000000
   76.77900000     2.27281000   -52.90000000
   76.79170000     2.26674000   -52.10000000
   76.80450000     2.26066000   -51.90000000
   76.81730000     2.25447000   -51.50000000
   76.82990000     2.24829000   -50.90000000
   76.84280000     2.24227000   -51.30000000
   76.85560000     2.23614000   -52.00000000
   76.86800000     2.22966000   -52.50000000
   76.88010000     2.22267000   -52.30000000
   76.89210000     2.21568000   -52.60000000
   76.90410000     2.20858000   -54.30000000
   76.91610000     2.20148000   -54.70000000
   76.92810000     2.19448000   -55.20000000
   76.94020000     2.18767000   -55.80000000
   76.95220000     2.18085000   -55.10000000
   76.96420000     2.17392000   -54.70000000
   76.97630000     2.16693000   -54.00000000
   76.98830000     2.15994000   -53.90000000
   77.00030000     2.15300000   -55.10000000
   77.01210000     2.14596000   -55.60000000
   77.02390000     2.13897000   -56.50000000
   77.03580000     2.13203000   -57.30000000
   77.04760000     2.12493000   -57.10000000
   77.05960000     2.11800000   -57.20000000
   77.07150000     2.11100000   -58.10000000
   77.08340000     2.10402000   -57.60000000
   77.09540000     2.09714000   -58.40000000
   77.10750000     2.09021000   -57.50000000
   77.11950000     2.08316000   -58.20000000
   77.13150000     2.07617000   -58.10000000
   77.14350000     2.06924000   -57.10000000
   77.15570000     2.06248000   -57.60000000
   77.16760000     2.05554000   -56.70000000
   77.17950000     2.04861000   -57.00000000
   77.19160000     2.04168000   -55.90000000
   77.20380000     2.03480000   -54.30000000
   77.21590000     2.02798000   -53.90000000
   77.22810000     2.02116000   -53.30000000
   77.24010000     2.01423000   -52.70000000
   77.25220000     2.00736000   -51.60000000
   77.26430000     2.00031000   -50.80000000
   77.27630000     1.99332000   -51.30000000
   77.28830000     1.98616000   -51.40000000
   77.36090000     1.94445000   -48.50000000
   77.37300000     1.93746000   -48.90000000
   77.38500000     1.93052000   -49.60000000
   77.39710000     1.92371000   -50.80000000
   77.40910000     1.91671000   -52.10000000
   77.42120000     1.90967000   -51.40000000
   77.43330000     1.90273000   -50.80000000
   77.44530000     1.89569000   -52.20000000
   77.45730000     1.88858000   -51.60000000
   77.46940000     1.88148000   -52.10000000
   77.48140000     1.87437000   -50.80000000
   77.49350000     1.86721000   -52.40000000
   77.50550000     1.86011000   -51.90000000
   77.51740000     1.85295000   -52.30000000
   77.52930000     1.84561000   -52.70000000
   77.54130000     1.83839000   -51.80000000
   77.55350000     1.83134000   -53.10000000
   77.56550000     1.82424000   -53.40000000
   77.57760000     1.81719000   -53.40000000
   77.58970000     1.81020000   -54.40000000
   77.60170000     1.80310000   -54.60000000
   77.61670000     1.79559000   -56.30000000
   77.62910000     1.78872000   -56.90000000
   77.64160000     1.78173000   -57.00000000
   77.65400000     1.77491000   -57.30000000
   77.66640000     1.76809000   -56.20000000
   77.67880000     1.76121000   -57.20000000
   77.69140000     1.75440000   -56.50000000
   77.70400000     1.74763000   -56.40000000
   77.71670000     1.74105000   -55.80000000
   77.72930000     1.73440000   -57.30000000
   77.74190000     1.72764000   -58.10000000
   77.75450000     1.72082000   -59.60000000
   77.76720000     1.71429000   -58.20000000
   77.77990000     1.70799000   -57.40000000
   77.85610000     1.66914000   -56.10000000
   77.86870000     1.66249000   -56.40000000
   77.88120000     1.65568000   -55.80000000
   77.89380000     1.64886000   -55.40000000
   77.90630000     1.64204000   -55.10000000
   77.91880000     1.63522000   -54.20000000
   77.93130000     1.62846000   -54.20000000
   77.94370000     1.62176000   -54.00000000
   78.00580000     1.58910000   -50.90000000
   78.01820000     1.58262000   -53.40000000
   78.03060000     1.57609000   -53.00000000
   78.04280000     1.56945000   -53.10000000
   78.05510000     1.56286000   -53.40000000
   78.06740000     1.55627000   -53.30000000
   78.07970000     1.54985000   -51.00000000
   78.09190000     1.54332000   -51.90000000
   78.10420000     1.53673000   -50.40000000
   78.11660000     1.53037000   -47.80000000
   78.12920000     1.52407000   -48.40000000
   78.14340000     1.51862000   -48.90000000
   78.15610000     1.51244000   -46.70000000
   78.16890000     1.50636000   -46.70000000
   78.18170000     1.50035000   -48.00000000
   78.19450000     1.49427000   -47.30000000
   78.20730000     1.48831000   -48.20000000
   78.22010000     1.48218000   -48.40000000
   78.23290000     1.47600000   -49.10000000
   78.24580000     1.46998000   -49.40000000
   78.25870000     1.46391000   -49.10000000
   78.27150000     1.45783000   -48.60000000
   78.28450000     1.45176000   -49.60000000
   78.29710000     1.44569000   -49.60000000
   78.30950000     1.43973000   -48.80000000
   78.32200000     1.43383000   -49.10000000
   78.33460000     1.42793000   -50.10000000
   78.34730000     1.42208000   -50.50000000
   78.35990000     1.41624000   -50.40000000
   78.37250000     1.41034000   -50.20000000
   78.38500000     1.40461000   -50.00000000
   78.39760000     1.39888000   -48.70000000
   78.41000000     1.39309000   -47.60000000
   78.42310000     1.38770000   -46.20000000
   78.43550000     1.38209000   -46.60000000
   78.44800000     1.37653000   -46.30000000
   78.46060000     1.37109000   -46.80000000
   78.47310000     1.36553000   -46.90000000
   78.48560000     1.36003000   -46.90000000
   78.49860000     1.35447000   -47.60000000
   78.51130000     1.34897000   -46.80000000
   78.52410000     1.34359000   -47.50000000
   78.53610000     1.33745000   -48.20000000
   78.54740000     1.33046000   -47.90000000
   78.55860000     1.32347000   -48.00000000
   78.56980000     1.31637000   -47.90000000
   78.58100000     1.30915000   -47.90000000
   78.59240000     1.30205000   -47.60000000
   78.60370000     1.29500000   -47.20000000
   78.61490000     1.28784000   -48.20000000
   78.62610000     1.28062000   -48.00000000
   78.63720000     1.27351000   -48.50000000
   78.64830000     1.26641000   -48.20000000
   78.65950000     1.25942000   -48.80000000
   78.67070000     1.25243000   -49.40000000
   78.68190000     1.24544000   -50.00000000
   78.69310000     1.23851000   -50.10000000
   78.70450000     1.23169000   -50.40000000
   78.71560000     1.22470000   -51.00000000
   78.72690000     1.21776000   -50.70000000
   78.73880000     1.21089000   -51.10000000
   78.75010000     1.20367000   -50.60000000
   78.76130000     1.19645000   -50.10000000
   78.77230000     1.18900000   -51.20000000
   78.78320000     1.18150000   -50.80000000
   78.79440000     1.17422000   -50.20000000
   78.80560000     1.16706000   -50.10000000
   78.81680000     1.15978000   -50.10000000
   78.82790000     1.15250000   -49.50000000
   78.83900000     1.14523000   -49.50000000
   78.85000000     1.13789000   -48.90000000
   78.86100000     1.13067000   -49.20000000
   78.87220000     1.12351000   -49.50000000
   78.88340000     1.11629000   -49.10000000
   78.89440000     1.10902000   -48.70000000
   78.90540000     1.10168000   -49.80000000
   78.91630000     1.09435000   -49.80000000
   78.92730000     1.08702000   -49.30000000
   78.93840000     1.07980000   -49.90000000
   78.94940000     1.07252000   -50.20000000
   78.96060000     1.06530000   -51.00000000
   78.97170000     1.05814000   -52.20000000
   78.98290000     1.05092000   -53.10000000
   78.99400000     1.04370000   -54.00000000
   79.00510000     1.03648000   -54.10000000
   79.01610000     1.03276000   -53.40000000
   79.02310000     1.03877000   -54.60000000
   79.02630000     1.05075000   -54.10000000
   79.02980000     1.06226000   -52.00000000
   79.03320000     1.07389000   -50.90000000
   79.03660000     1.08558000   -50.00000000
   79.04000000     1.09721000   -49.40000000
   79.04340000     1.10884000   -48.60000000
   79.04670000     1.12053000   -48.20000000
   79.04990000     1.13222000   -47.70000000
   79.05310000     1.14391000   -48.00000000
   79.05640000     1.15560000   -48.00000000
   79.05960000     1.16729000   -48.10000000
   79.06300000     1.17898000   -48.40000000
   79.06630000     1.19066000   -47.90000000
   79.06960000     1.20229000   -47.20000000
   79.07300000     1.21404000   -46.50000000
   79.07650000     1.22573000   -46.30000000
   79.08010000     1.23742000   -45.80000000
   79.08360000     1.24905000   -45.80000000
   79.08690000     1.26068000   -46.90000000
   79.09010000     1.27231000   -47.60000000
   79.09350000     1.28394000   -48.50000000
   79.09880000     1.29655000   -50.50000000
   79.10250000     1.30863000   -50.80000000
   79.10630000     1.32072000   -52.20000000
   79.10970000     1.33270000   -52.20000000
   79.11300000     1.34467000   -51.90000000
   79.11660000     1.35665000   -52.00000000
   79.12030000     1.36868000   -51.30000000
   79.12390000     1.38066000   -50.80000000
   79.12730000     1.39263000   -50.10000000
   79.13080000     1.40472000   -49.50000000
   79.13450000     1.41503000   -48.60000000
   79.13820000     1.42277000   -48.60000000
   79.14190000     1.42999000   -48.30000000
   79.14570000     1.43721000   -48.00000000
   79.14890000     1.44351000   -48.10000000
   79.15080000     1.44626000   -47.20000000
   79.15200000     1.44678000   -48.40000000
   79.15300000     1.44735000   -48.30000000
   79.15410000     1.44769000   -48.40000000
   79.15510000     1.44786000   -48.20000000
   79.15590000     1.44786000   -48.60000000
   79.15640000     1.44781000   -49.40000000
   79.15680000     1.44781000   -48.60000000
   79.15720000     1.44775000   -48.70000000
   79.15850000     1.44758000   -48.30000000
   79.15880000     1.44712000   -48.60000000
   79.15910000     1.44672000   -48.70000000
