  113.44667000    11.99333000    -8.50000000
  113.41667000    11.96500000   -11.10000000
  113.38833000    11.93500000   -13.20000000
  113.35833000    11.90500000   -12.90000000
  113.32833000    11.87667000   -14.10000000
  113.29833000    11.84667000   -10.00000000
  112.51333000    11.03500000     0.90000000
  112.48500000    11.00500000     1.50000000
  112.45667000    10.97500000     4.00000000
  112.42667000    10.94500000     6.80000000
  112.39833000    10.91500000     7.30000000
  112.36833000    10.88500000     6.30000000
  112.34000000    10.85500000    11.70000000
  112.31000000    10.82500000    10.70000000
  112.28167000    10.79500000     3.60000000
  112.25333000    10.76500000     1.20000000
  112.22333000    10.73500000    -1.60000000
  112.19500000    10.70500000    -1.60000000
  112.16500000    10.67500000    -4.90000000
  112.13667000    10.64500000    -3.30000000
  112.10667000    10.61500000    -0.80000000
  112.07833000    10.58500000     9.30000000
  112.05167000    10.55833000     9.80000000
  112.02500000    10.53167000     7.60000000
  111.99833000    10.50333000     9.00000000
  111.97333000    10.47667000    10.80000000
  111.94667000    10.45000000     9.10000000
  107.57333000     5.78333000    23.90000000
  107.54833000     5.75667000    20.30000000
  107.52333000     5.71833000    20.70000000
  107.49833000     5.68667000    25.80000000
  107.47333000     5.65333000    31.20000000
  107.44833000     5.62167000    28.40000000
  107.42333000     5.58833000    22.30000000
  107.39667000     5.55667000    20.00000000
  107.37167000     5.52333000    12.90000000
  107.34667000     5.49167000     2.00000000
  107.32167000     5.45833000    -7.10000000
  107.29667000     5.42500000    -6.90000000
  107.27167000     5.39333000    -9.40000000
  107.24667000     5.36000000    -6.90000000
  107.17167000     5.26333000    -6.00000000
  107.14667000     5.23000000    -2.50000000
  107.12167000     5.19833000    -2.00000000
  107.09667000     5.16500000    -1.60000000
  107.07167000     5.13333000    -2.30000000
  107.04500000     5.10000000    -3.30000000
  107.02000000     5.06833000    -3.30000000
  106.99500000     5.03500000    -3.90000000
  106.97000000     5.00333000    -5.70000000
  106.94500000     4.97000000    -4.80000000
  106.92000000     4.93833000    -2.80000000
  106.89500000     4.90500000    -0.70000000
  106.87000000     4.87333000     0.90000000
  106.84500000     4.84000000     3.90000000
  106.82000000     4.80833000     6.10000000
  106.79500000     4.77500000     5.00000000
  106.77000000     4.74167000     4.10000000
  106.74500000     4.71000000     4.80000000
  106.72000000     4.67667000     8.10000000
  106.69333000     4.64500000    10.90000000
  106.66833000     4.61167000    18.90000000
  106.64333000     4.58000000    18.20000000
  106.61833000     4.54667000    -0.60000000
  106.59333000     4.51500000    -3.90000000
  106.56833000     4.48167000    -4.10000000
  106.54333000     4.45000000    -4.90000000
  106.51833000     4.41667000    -5.30000000
  106.49333000     4.38500000    -8.30000000
  106.46833000     4.35167000    -8.40000000
  106.44333000     4.32000000    -9.20000000
  106.41833000     4.28667000    -9.10000000
  106.39333000     4.25500000    -8.30000000
  106.36833000     4.22167000    -6.60000000
  106.34167000     4.19000000    -3.10000000
  106.31667000     4.15667000     1.50000000
  106.29167000     4.12500000     5.10000000
  106.26667000     4.09167000     4.30000000
  106.24167000     4.05833000     2.00000000
  106.21667000     4.02667000     0.50000000
  106.19167000     3.99333000     0.90000000
  106.16667000     3.96167000    -0.40000000
  106.14167000     3.92833000    -1.40000000
  106.11667000     3.89667000    -1.10000000
  106.09167000     3.86333000     0.80000000
  106.06667000     3.83167000     5.50000000
  106.04167000     3.79833000     6.90000000
  106.01667000     3.76667000     6.20000000
  105.99000000     3.73333000     8.40000000
  105.96333000     3.70167000    14.20000000
  105.93500000     3.67000000    18.70000000
  105.90833000     3.63833000    21.30000000
  105.88167000     3.60667000    22.30000000
  105.85667000     3.57500000    18.70000000
  105.83000000     3.54333000    12.60000000
  105.80333000     3.51167000     9.40000000
  105.77833000     3.48000000    13.60000000
  105.75167000     3.44833000    16.10000000
  105.72500000     3.41667000     8.40000000
  105.70000000     3.38500000     9.10000000
  105.67333000     3.35333000     7.40000000
  105.64667000     3.32167000    11.60000000
  105.62167000     3.29000000    11.40000000
  105.59500000     3.25833000    14.50000000
  105.57000000     3.22667000    13.80000000
  105.54333000     3.19500000    15.30000000
  105.43833000     3.04500000    12.00000000
  105.42000000     3.00667000    10.30000000
  105.40167000     2.97000000    14.30000000
  105.38333000     2.93333000    13.20000000
  105.36667000     2.89667000    11.70000000
  105.34833000     2.86000000    10.50000000
  105.33000000     2.82167000     6.50000000
  105.31167000     2.78500000     6.70000000
  105.29333000     2.74833000     8.80000000
  105.27500000     2.71167000     8.20000000
  105.25833000     2.67333000     9.80000000
  105.24000000     2.63667000    12.50000000
  105.22167000     2.60000000    13.90000000
  105.20167000     2.56500000    10.80000000
  105.18167000     2.53000000    15.40000000
  105.16167000     2.49500000    15.40000000
  105.14167000     2.46000000    17.20000000
  105.12167000     2.42500000    20.50000000
  105.10167000     2.39167000    20.80000000
  105.08167000     2.35667000    18.20000000
  105.06167000     2.32167000    16.50000000
  105.04167000     2.28667000    10.80000000
  105.02167000     2.25167000    11.10000000
  105.00167000     2.21667000    10.90000000
  104.98167000     2.18167000    10.30000000
  104.96333000     2.14833000    11.20000000
  104.94500000     2.11333000    15.60000000
  104.92667000     2.08000000    26.90000000
  104.90833000     2.04500000    30.40000000
  104.89000000     2.01000000    30.60000000
  104.81500000     1.85500000    18.00000000
  104.79667000     1.81833000    16.80000000
  104.78000000     1.78000000    21.40000000
  104.76167000     1.74333000    19.70000000
  104.74500000     1.70667000    16.20000000
  104.72667000     1.67000000    13.00000000
  104.71000000     1.63167000    16.80000000
  104.69167000     1.59500000    15.90000000
  104.67500000     1.55833000    17.20000000
  104.65833000     1.52167000    19.60000000
  105.47333000     0.77333000    23.10000000
  105.50500000     0.74833000    23.10000000
  105.53833000     0.72167000    19.10000000
  105.57167000     0.69667000    15.50000000
  105.60500000     0.67000000    14.80000000
  105.63833000     0.64333000    15.10000000
  105.67167000     0.61833000    13.40000000
  105.70333000     0.59167000    14.10000000
  105.73667000     0.56500000    18.90000000
  105.77000000     0.54000000    21.50000000
  105.82833000     0.48667000    14.30000000
  105.85667000     0.46167000    13.70000000
  105.88500000     0.43500000    14.30000000
  105.91333000     0.40833000    13.30000000
  105.94167000     0.38333000    12.00000000
  105.97000000     0.35667000    11.10000000
  105.99833000     0.33000000    12.10000000
  106.02667000     0.30500000    12.90000000
  106.05500000     0.27833000    16.60000000
  106.08333000     0.25167000    19.10000000
  106.11167000     0.22500000    17.40000000
  106.14000000     0.20000000    16.50000000
  106.16833000     0.17333000    17.10000000
  106.19667000     0.14667000    14.90000000
  106.22500000     0.12167000    13.50000000
  106.25333000     0.09500000    13.20000000
  106.28167000     0.06833000    12.30000000
  106.31000000     0.04333000    11.90000000
  106.33833000     0.01667000    13.00000000
  106.36667000    -0.01000000    12.00000000
  106.39500000    -0.03667000    14.10000000
  106.42333000    -0.06167000    13.50000000
  106.45167000    -0.08833000    13.60000000
  106.48000000    -0.11500000    14.30000000
  106.50833000    -0.14000000    17.10000000
  106.53667000    -0.16667000    19.10000000
  106.56500000    -0.19333000    20.60000000
  106.59333000    -0.21833000    19.10000000
  106.62000000    -0.24500000    15.70000000
  106.64833000    -0.27167000    15.40000000
  106.67667000    -0.29833000    14.70000000
  106.70500000    -0.32333000    15.50000000
  106.73333000    -0.35000000    16.00000000
  106.76167000    -0.37667000    16.60000000
  106.79000000    -0.40167000    18.40000000
  106.81833000    -0.42833000    16.60000000
  106.84667000    -0.45500000    14.60000000
  106.87500000    -0.48000000    13.60000000
  106.90333000    -0.50667000    12.60000000
  106.93167000    -0.53333000    13.70000000
  106.96000000    -0.55833000    14.80000000
  106.98833000    -0.58500000    15.50000000
  107.01667000    -0.61167000    18.30000000
  107.04500000    -0.63833000    18.60000000
  107.07333000    -0.66333000    17.90000000
  107.10500000    -0.69000000    28.70000000
  107.13667000    -0.71667000    24.60000000
  107.16833000    -0.74333000    22.50000000
  107.20167000    -0.77000000    23.60000000
  107.23333000    -0.79667000    21.20000000
  107.26667000    -0.82333000    20.10000000
  107.29833000    -0.84833000    23.70000000
  107.33167000    -0.87500000    22.50000000
  107.36333000    -0.90167000    23.80000000
  107.39667000    -0.92833000    22.30000000
  107.42833000    -0.95500000    22.70000000
  107.46000000    -0.98167000    25.20000000
  107.49333000    -1.00833000    20.40000000
  107.52500000    -1.03500000    20.00000000
  107.55833000    -1.06167000    19.60000000
  107.59000000    -1.08833000    16.10000000
  107.62333000    -1.11333000    17.10000000
  107.65500000    -1.14000000    19.90000000
  107.68667000    -1.16667000    20.70000000
  107.72000000    -1.19333000    20.10000000
  107.75167000    -1.22000000    23.60000000
  107.78500000    -1.24667000    24.40000000
  107.81667000    -1.27333000    25.20000000
  107.85000000    -1.30000000    23.70000000
  107.88167000    -1.32667000    19.50000000
  107.91500000    -1.35167000    14.90000000
  107.94667000    -1.37833000    12.60000000
  107.97833000    -1.40500000    15.50000000
  108.07667000    -1.48500000    26.90000000
  108.11000000    -1.51167000    38.30000000
  108.14167000    -1.53833000    38.60000000
  108.17500000    -1.56333000    39.10000000
  108.26667000    -1.61167000    27.80000000
  108.30667000    -1.62667000    25.10000000
  108.34500000    -1.64167000    22.20000000
  108.38333000    -1.65667000    22.40000000
  108.42167000    -1.67167000    20.30000000
  108.45833000    -1.68667000    18.70000000
  108.49500000    -1.70167000    15.20000000
  108.53333000    -1.71500000    15.70000000
  108.72833000    -1.81667000    11.70000000
  108.76167000    -1.84167000     9.70000000
  108.79500000    -1.86667000    11.70000000
  108.82667000    -1.89167000    15.10000000
  108.86000000    -1.91833000    20.60000000
  108.89333000    -1.94500000    26.60000000
  108.92667000    -1.97333000    31.00000000
  109.22000000    -2.82667000    23.60000000
  109.25833000    -2.94167000    17.70000000
  109.27167000    -2.98000000    12.80000000
  109.28500000    -3.01833000    16.30000000
  109.29833000    -3.05667000    16.70000000
  109.31167000    -3.09500000    14.00000000
  109.32500000    -3.13333000     8.90000000
  109.33833000    -3.17167000     9.40000000
  109.34333000    -3.28667000    14.40000000
  109.34167000    -3.32833000    19.00000000
  109.34167000    -3.36833000    20.20000000
  109.34000000    -3.41000000    27.00000000
  109.33833000    -3.45167000    34.30000000
  109.33833000    -3.49167000    36.40000000
  109.33667000    -3.53333000    31.10000000
  109.33667000    -3.57333000    26.30000000
  109.33500000    -3.61500000    24.40000000
  109.33500000    -3.65667000    31.80000000
  109.33667000    -3.69667000    31.70000000
  109.33667000    -3.73833000    31.60000000
  109.33667000    -3.82000000    25.90000000
  109.33833000    -3.86167000    24.40000000
  109.34000000    -3.90167000    23.30000000
  109.34167000    -3.94333000    17.00000000
  109.34167000    -3.98333000    10.10000000
  109.19500000    -4.07333000     9.40000000
  109.15333000    -4.09000000    12.80000000
  109.11000000    -4.10667000    10.90000000
  109.06833000    -4.12333000     9.20000000
  109.02667000    -4.14000000    12.10000000
  108.98500000    -4.15500000    15.80000000
  108.94167000    -4.17167000    19.10000000
  108.90000000    -4.18833000    22.40000000
  108.85833000    -4.20500000    18.60000000
  108.81667000    -4.22000000     3.30000000
  108.77333000    -4.23667000     4.70000000
  108.73167000    -4.25333000     1.90000000
  108.69167000    -4.27000000     0.60000000
  108.65000000    -4.28833000     3.90000000
  108.61000000    -4.30500000     7.10000000
  108.57000000    -4.32333000    10.70000000
  108.52833000    -4.34000000    12.10000000
  108.48833000    -4.35833000    14.20000000
  108.43000000    -4.38167000    14.10000000
  108.38833000    -4.40000000    15.50000000
  108.34667000    -4.41667000    15.20000000
  108.22167000    -4.46833000    18.30000000
  108.18000000    -4.48500000    20.20000000
  108.13833000    -4.50333000    22.90000000
  108.09667000    -4.52000000    23.80000000
  108.05500000    -4.53667000    24.00000000
  108.01333000    -4.55500000    23.20000000
  107.97167000    -4.57167000    20.00000000
  107.92833000    -4.58667000    20.60000000
  107.88667000    -4.60167000    22.40000000
  107.84500000    -4.61667000    25.50000000
  107.80167000    -4.63167000    26.80000000
  107.65333000    -4.68667000    25.70000000
  107.61000000    -4.70167000    26.80000000
  107.56667000    -4.71833000    26.50000000
  107.52500000    -4.73333000    28.10000000
  107.48167000    -4.75000000    34.20000000
  107.43833000    -4.76500000    31.30000000
  107.39667000    -4.78167000    31.50000000
  107.35333000    -4.79667000    32.10000000
  107.31167000    -4.81333000    34.10000000
  107.26833000    -4.82833000    34.30000000
  107.22500000    -4.84500000    31.70000000
  107.18333000    -4.86000000    24.30000000
  107.14000000    -4.87667000    20.90000000
  107.09667000    -4.89167000    22.90000000
  107.05500000    -4.90833000    22.00000000
  107.01167000    -4.92333000    26.50000000
  106.96833000    -4.94000000    37.30000000
  106.92667000    -4.95500000    42.10000000
  106.88333000    -4.97167000    45.10000000
  106.84167000    -4.98667000    47.40000000
  106.79833000    -5.00333000    48.40000000
  106.75500000    -5.01833000    48.50000000
  106.71167000    -5.03667000    42.40000000
  106.66833000    -5.05500000    40.70000000
  106.51000000    -5.14333000    40.20000000
  106.47667000    -5.16500000    30.60000000
  106.44000000    -5.18667000    24.80000000
  106.40333000    -5.20833000    32.30000000
  106.21000000    -5.39833000    33.60000000
  106.19000000    -5.43833000    39.70000000
  106.17000000    -5.47667000    44.30000000
  106.15000000    -5.51667000    47.20000000
  106.13000000    -5.55667000    49.20000000
  106.11000000    -5.59500000    40.10000000
  106.08833000    -5.63667000    36.40000000
  106.06833000    -5.67833000    43.80000000
  106.04833000    -5.71833000    44.60000000
  106.02667000    -5.76000000    49.30000000
  106.00667000    -5.79833000    49.80000000
  105.98500000    -5.83667000    52.10000000
  105.96333000    -5.87500000    51.00000000
  105.80500000    -6.05333000    37.90000000
  105.75833000    -6.07167000    32.60000000
  105.71333000    -6.09167000    31.40000000
  105.66667000    -6.11000000    32.60000000
  105.57667000    -6.15000000    64.40000000
  105.53833000    -6.16500000    65.80000000
  105.50000000    -6.18167000    56.70000000
  105.46000000    -6.20167000    60.10000000
  105.39333000    -6.27000000    54.30000000
  105.37667000    -6.31167000    58.90000000
  105.36167000    -6.35333000    61.70000000
  105.34667000    -6.39667000    84.00000000
  105.33500000    -6.44167000    77.50000000
  105.32333000    -6.48667000    69.60000000
  105.31167000    -6.53167000    77.80000000
  105.30000000    -6.57833000    87.60000000
  105.25000000    -6.66833000   101.20000000
  105.21667000    -6.70000000   105.70000000
  105.18167000    -6.73333000    91.70000000
  105.14833000    -6.76500000    39.40000000
  105.20167000    -6.95167000   -48.80000000
  105.22500000    -6.98667000   -52.00000000
  105.24667000    -7.02167000   -45.60000000
  105.27000000    -7.05667000   -41.50000000
  105.29333000    -7.09167000   -57.80000000
  105.31500000    -7.12667000   -72.90000000
  105.33833000    -7.16167000   -92.90000000
  105.36167000    -7.19833000  -107.90000000
  105.38333000    -7.23333000  -123.00000000
  105.40667000    -7.26833000  -140.30000000
  105.42833000    -7.30333000  -144.00000000
  105.45167000    -7.33833000  -155.80000000
  105.47500000    -7.37333000  -160.40000000
  105.49833000    -7.40500000  -162.70000000
  105.52000000    -7.43833000  -161.60000000
  105.54333000    -7.47000000  -155.80000000
  105.56667000    -7.50333000  -154.20000000
  105.59000000    -7.53500000  -150.10000000
  105.63000000    -7.59000000  -157.70000000
  105.65167000    -7.62167000  -154.80000000
  105.67500000    -7.65333000  -154.00000000
  105.69667000    -7.68500000  -151.10000000
  105.72000000    -7.71833000  -154.20000000
  105.74167000    -7.75000000  -146.70000000
  105.76500000    -7.78167000  -147.70000000
  105.78833000    -7.81500000  -140.20000000
  105.81000000    -7.84667000  -133.50000000
  105.83333000    -7.87833000  -124.10000000
  105.85500000    -7.91000000  -117.80000000
  105.87833000    -7.94333000  -110.80000000
  105.90000000    -7.97500000  -105.60000000
  105.92333000    -8.00667000  -104.10000000
  105.94500000    -8.04000000   -92.70000000
  105.96833000    -8.07167000   -94.20000000
  105.99000000    -8.10333000   -87.30000000
  106.01333000    -8.13500000   -83.20000000
  106.03500000    -8.16833000   -82.60000000
  106.05833000    -8.20000000   -78.10000000
  106.08167000    -8.23500000   -72.10000000
  106.10500000    -8.26833000   -71.00000000
  106.13000000    -8.30333000   -68.50000000
  106.15333000    -8.33667000   -65.50000000
  106.17667000    -8.37167000   -58.60000000
  106.20000000    -8.40667000   -66.70000000
  106.22333000    -8.44000000   -73.60000000
  106.24833000    -8.47500000   -80.20000000
  106.27167000    -8.50833000   -80.90000000
  106.29500000    -8.54333000   -79.00000000
  106.31833000    -8.57833000   -70.20000000
  106.34167000    -8.61167000   -61.60000000
  106.36667000    -8.64667000   -66.70000000
  106.39000000    -8.68000000   -65.40000000
  106.41333000    -8.71500000   -58.10000000
  106.43667000    -8.75000000   -53.20000000
  106.46167000    -8.78333000   -54.40000000
  106.48500000    -8.81833000   -54.70000000
  106.50833000    -8.85167000   -52.70000000
  106.53167000    -8.88667000   -41.50000000
  106.55500000    -8.92167000   -40.40000000
  106.58000000    -8.95500000   -39.40000000
  106.60333000    -8.99000000   -39.80000000
  106.62667000    -9.02500000   -40.70000000
  106.65000000    -9.05833000   -37.80000000
  106.67333000    -9.09333000   -41.70000000
  106.69833000    -9.12667000   -45.50000000
  106.72167000    -9.16167000   -44.00000000
  106.74500000    -9.19667000   -45.40000000
  106.76833000    -9.23000000   -44.90000000
  106.79167000    -9.26500000   -51.00000000
  106.81667000    -9.29833000   -60.70000000
  106.84000000    -9.33333000   -67.80000000
  106.86333000    -9.36833000   -75.70000000
  106.95167000    -9.69333000   -94.70000000
  106.96167000    -9.73333000   -87.20000000
  106.97167000    -9.77500000   -84.70000000
  106.98167000    -9.81500000   -78.10000000
  106.99000000    -9.85500000   -70.00000000
  107.00000000    -9.89500000   -61.00000000
  107.01000000    -9.93667000   -56.50000000
  107.01833000    -9.97667000   -49.30000000
  107.02833000   -10.01667000   -41.80000000
  107.03833000   -10.05667000   -32.50000000
  107.04833000   -10.09833000   -31.00000000
  106.85167000    -9.59500000   -97.70000000
  106.88667000    -9.60667000  -100.40000000
  106.92167000    -9.62000000   -98.90000000
  106.95667000    -9.63167000  -101.20000000
  106.99167000    -9.64333000  -101.20000000
  107.02667000    -9.65500000  -102.10000000
  107.06000000    -9.66667000  -105.10000000
  107.09500000    -9.68000000  -102.40000000
  107.13000000    -9.69167000  -102.70000000
  107.16500000    -9.70333000  -102.50000000
  107.20000000    -9.71500000  -102.40000000
  107.23500000    -9.72667000  -102.90000000
  107.27000000    -9.73833000  -100.40000000
  107.30500000    -9.75167000  -106.20000000
  107.34000000    -9.76333000  -100.00000000
  107.37500000    -9.77500000  -100.30000000
  107.41000000    -9.78667000  -104.90000000
  107.44500000    -9.79833000  -102.10000000
  107.48000000    -9.81167000  -109.50000000
  107.51500000    -9.82333000   -98.70000000
  107.55000000    -9.83500000  -110.90000000
  107.58500000    -9.84667000  -109.50000000
  107.62000000    -9.85833000  -111.40000000
  107.65667000    -9.87333000  -103.20000000
  107.69500000    -9.88667000  -103.00000000
  107.73167000    -9.90167000  -100.50000000
  107.77000000    -9.91500000  -102.60000000
  107.80833000    -9.93000000  -104.30000000
  107.84500000    -9.94333000  -103.80000000
  107.88333000    -9.95833000  -104.80000000
  107.92000000    -9.97167000  -104.90000000
  107.95833000    -9.98667000   -99.80000000
  107.99667000   -10.00000000  -101.40000000
  108.03333000   -10.01500000  -105.10000000
  108.07167000   -10.02833000  -105.20000000
  108.10833000   -10.04333000  -103.20000000
  108.14667000   -10.05667000  -102.20000000
  108.18333000   -10.07167000  -103.00000000
  108.22167000   -10.08500000  -100.60000000
  108.26000000   -10.09833000   -96.50000000
  108.29667000   -10.11333000   -94.70000000
  108.33500000   -10.12667000   -97.50000000
  108.37167000   -10.14167000   -94.90000000
  108.41000000   -10.15500000   -90.20000000
  108.44667000   -10.17000000   -91.00000000
  108.48500000   -10.18333000   -92.90000000
  108.52333000   -10.19833000   -86.10000000
  108.56000000   -10.21167000   -89.70000000
  108.59833000   -10.22667000   -83.10000000
  108.63500000   -10.24000000   -83.80000000
  108.67333000   -10.25500000   -85.90000000
  108.71167000   -10.26833000   -89.30000000
  108.74833000   -10.28333000   -94.00000000
  108.78667000   -10.29667000   -90.20000000
  108.92833000   -10.31500000  -101.20000000
  108.96833000   -10.31667000  -103.40000000
  109.04833000   -10.32167000  -117.70000000
  109.08667000   -10.32333000  -118.70000000
  109.12500000   -10.32500000  -117.40000000
  109.16333000   -10.32667000  -115.70000000
  109.20167000   -10.32833000  -105.90000000
  109.24000000   -10.33000000  -102.60000000
  109.27833000   -10.33167000  -100.10000000
  109.31667000   -10.33333000  -103.50000000
  109.35500000   -10.33500000  -105.90000000
  109.58667000   -10.24833000  -124.20000000
  109.61333000   -10.28167000  -126.70000000
  109.64000000   -10.31333000  -123.40000000
  109.66667000   -10.34667000  -119.80000000
  109.69333000   -10.37833000  -120.70000000
  109.83333000   -10.59167000   -74.90000000
  109.83167000   -10.63167000   -61.00000000
  109.83167000   -10.67167000   -50.70000000
  109.83167000   -10.71167000   -41.50000000
  109.83167000   -10.75167000   -34.20000000
  109.83167000   -10.79167000   -27.20000000
  109.83000000   -10.83167000   -21.00000000
  109.83000000   -10.87167000   -13.70000000
  109.83000000   -10.91167000    -8.00000000
  109.83000000   -10.95167000    -0.70000000
  109.83000000   -10.99167000     0.30000000
  109.82833000   -11.03167000     9.90000000
  109.82833000   -11.07167000    14.10000000
  109.82833000   -11.11167000    15.60000000
  109.82833000   -11.15167000    17.20000000
  109.82667000   -11.19167000    17.90000000
  109.82667000   -11.23167000    18.30000000
  109.82667000   -11.27167000    16.90000000
  109.82667000   -11.31167000    15.90000000
  109.82500000   -11.35333000    17.70000000
  109.82500000   -11.39500000    15.50000000
  109.82333000   -11.43667000    15.40000000
  109.82167000   -11.53833000    30.30000000
  109.82167000   -11.58000000    39.70000000
  109.82167000   -11.62167000    46.40000000
  109.82167000   -11.66500000    47.70000000
  109.82167000   -11.70667000    41.40000000
  109.82167000   -11.74833000    38.10000000
  109.82167000   -11.79167000    42.40000000
  109.82167000   -11.88833000    42.40000000
  109.82333000   -11.93167000    36.20000000
  109.82333000   -11.97500000    33.80000000
  109.82500000   -12.01833000    34.20000000
  109.82333000   -12.06000000    25.60000000
  109.82167000   -12.10167000    23.90000000
  109.82000000   -12.14500000    23.30000000
  109.81833000   -12.18667000    18.70000000
  109.81667000   -12.22833000    17.30000000
  109.81500000   -12.27000000    16.20000000
  109.81333000   -12.31167000    14.90000000
  109.81167000   -12.35500000    11.20000000
  109.81000000   -12.39667000     5.80000000
  109.80667000   -12.48000000    -0.50000000
  109.80500000   -12.52167000    -1.80000000
  109.80333000   -12.56500000    -0.40000000
  109.80167000   -12.60667000    -0.90000000
  109.80000000   -12.64833000    -0.80000000
  109.79833000   -12.69000000    -2.20000000
  109.79667000   -12.73000000    -3.00000000
  109.79500000   -12.77167000    -0.30000000
  109.79333000   -12.81167000     2.20000000
  109.79167000   -12.85167000     6.30000000
  109.79000000   -12.89333000     2.30000000
  109.78833000   -12.93333000    -3.40000000
  109.78667000   -12.97500000    -1.50000000
  109.95333000   -13.52333000    -9.30000000
  109.95833000   -13.56500000    -9.50000000
  109.96167000   -13.60833000   -11.80000000
  109.96667000   -13.65000000   -13.90000000
  109.97000000   -13.69333000   -17.30000000
  109.97500000   -13.73500000   -15.30000000
  109.97833000   -13.77833000   -14.70000000
  109.98167000   -13.82000000   -17.90000000
  109.98667000   -13.86333000   -15.80000000
  109.99000000   -13.90500000   -15.40000000
  109.99500000   -13.94833000   -16.20000000
  109.99833000   -13.99000000   -15.90000000
  110.00167000   -14.03333000   -18.90000000
  110.00333000   -14.07667000   -20.50000000
  110.00500000   -14.11833000   -18.80000000
  110.00667000   -14.16167000   -19.30000000
  110.00833000   -14.20500000   -20.10000000
  110.01000000   -14.24667000   -20.50000000
  110.01167000   -14.29000000   -16.60000000
  110.01333000   -14.33333000   -17.00000000
  110.01500000   -14.37500000   -16.50000000
  110.01667000   -14.41833000   -16.10000000
  110.01833000   -14.46000000   -19.10000000
  110.02000000   -14.50333000   -20.90000000
  110.02167000   -14.54667000   -22.80000000
  110.02333000   -14.58833000   -24.60000000
  110.02667000   -14.63167000   -27.00000000
  110.02833000   -14.67500000   -30.30000000
  110.03000000   -14.71667000   -26.30000000
  110.03167000   -14.76000000   -27.60000000
  110.03333000   -14.80333000   -28.40000000
  110.03500000   -14.84500000   -31.40000000
  110.03667000   -14.88833000   -34.00000000
  110.03833000   -14.93167000   -35.70000000
  110.04000000   -14.97333000   -35.00000000
  110.04167000   -15.01667000   -32.70000000
  110.04333000   -15.05833000   -33.90000000
  110.04500000   -15.10000000   -37.00000000
  110.04667000   -15.14167000   -36.00000000
  110.04833000   -15.18167000   -35.50000000
  110.04833000   -15.22333000   -36.50000000
  110.05000000   -15.26333000   -37.90000000
  110.05167000   -15.30500000   -40.10000000
  110.05333000   -15.34500000   -40.80000000
  110.05500000   -15.38667000   -42.00000000
  110.05667000   -15.42833000   -45.00000000
  110.05833000   -15.46833000   -43.60000000
  110.05833000   -15.51000000   -43.90000000
  110.06000000   -15.55000000   -43.50000000
  110.06167000   -15.59167000   -43.70000000
  110.06333000   -15.63333000   -41.30000000
  110.06500000   -15.67333000   -40.40000000
  110.06667000   -15.71500000   -39.70000000
  110.06833000   -15.75500000   -41.90000000
  110.06833000   -15.79667000   -39.40000000
  110.07000000   -15.83667000   -41.20000000
  110.07167000   -15.87833000   -42.50000000
  110.07333000   -15.92000000   -44.40000000
  110.07500000   -15.96000000   -43.00000000
  110.07667000   -16.00167000   -43.60000000
  110.07667000   -16.04167000   -42.40000000
  110.07833000   -16.08333000   -43.90000000
  110.08000000   -16.12333000   -40.40000000
  110.08167000   -16.16500000   -39.20000000
  110.08333000   -16.20667000   -39.30000000
  110.06500000   -17.28833000   -34.00000000
  110.06500000   -17.33167000   -34.00000000
  110.06667000   -17.37500000   -33.60000000
  110.06667000   -17.41667000   -31.40000000
  110.06833000   -17.46000000   -29.60000000
  110.06833000   -17.50333000   -29.60000000
  110.06833000   -17.54500000   -29.70000000
  110.07000000   -17.58833000   -30.70000000
  110.07000000   -17.63000000   -31.60000000
  110.07167000   -17.67333000   -30.50000000
  110.07167000   -17.71667000   -33.30000000
  110.07333000   -17.75833000   -27.40000000
  110.07333000   -17.80167000   -28.10000000
  110.07500000   -17.84500000   -25.40000000
  110.07500000   -17.88667000   -20.30000000
  110.07667000   -17.93000000   -18.70000000
  110.07667000   -17.97167000   -20.40000000
  110.07833000   -18.01500000   -22.10000000
  110.07833000   -18.05833000   -23.90000000
  110.07833000   -18.10000000   -22.30000000
  110.08000000   -18.14333000   -25.10000000
  110.08000000   -18.18667000   -23.40000000
  110.08167000   -18.22833000   -25.30000000
  110.08167000   -18.27167000   -21.90000000
  110.08333000   -18.31500000   -25.90000000
  110.08333000   -18.35667000   -24.60000000
  110.08500000   -18.40000000   -23.20000000
  110.08500000   -18.44167000   -30.10000000
  110.08667000   -18.48500000   -29.50000000
  110.08667000   -18.52833000   -31.30000000
  110.08667000   -18.57000000   -30.20000000
  110.08833000   -18.61333000   -28.70000000
  110.08833000   -18.65667000   -24.60000000
  110.09000000   -18.69833000   -26.80000000
  110.09000000   -18.74167000   -26.60000000
  110.09167000   -18.78333000   -25.20000000
  110.09167000   -18.82667000   -25.20000000
  110.09333000   -18.87000000   -24.80000000
  110.09333000   -18.91167000   -24.10000000
  110.09500000   -18.95500000   -24.80000000
  110.09500000   -18.99833000   -22.10000000
  110.09667000   -19.04000000   -22.40000000
  110.09667000   -19.08333000   -25.30000000
  110.09667000   -19.12667000   -21.90000000
  110.09833000   -19.16833000   -25.50000000
  110.09833000   -19.21167000   -22.50000000
  110.10000000   -19.25333000   -13.90000000
  110.10000000   -19.29667000   -11.20000000
  110.10167000   -19.34000000   -16.20000000
  110.10167000   -19.38167000   -23.10000000
  110.10333000   -19.42500000   -24.90000000
  110.10333000   -19.46833000   -25.00000000
  110.10500000   -19.51000000   -24.70000000
  110.10500000   -19.55333000   -23.80000000
  110.10500000   -19.59500000   -17.70000000
  110.10667000   -19.63833000   -14.40000000
  110.10667000   -19.68167000   -17.00000000
  110.10833000   -19.72333000   -24.00000000
  110.10833000   -19.76667000   -26.80000000
  110.11000000   -19.81000000   -25.30000000
  110.11000000   -19.85167000   -21.80000000
  110.11167000   -19.89500000   -23.70000000
  110.11167000   -19.93833000   -25.10000000
  110.11333000   -19.98000000   -25.90000000
  110.11333000   -20.02333000   -22.10000000
  110.11333000   -20.06500000   -25.10000000
  110.11500000   -20.10833000   -28.70000000
  110.11500000   -20.15167000   -31.90000000
  110.11667000   -20.19333000   -34.80000000
  110.11667000   -20.23667000   -36.90000000
  110.11667000   -20.28167000   -37.10000000
  110.11667000   -20.32500000   -32.70000000
  110.11667000   -20.36833000   -41.20000000
  110.11667000   -20.41167000   -45.10000000
  110.11667000   -20.45500000   -42.20000000
  110.11667000   -20.49833000   -39.40000000
  110.20000000   -20.89500000   -34.60000000
  110.21667000   -20.93500000   -38.30000000
  110.23500000   -20.97500000   -39.30000000
  110.25333000   -21.01500000   -41.90000000
  110.27000000   -21.05333000   -42.70000000
  110.28833000   -21.09333000   -43.20000000
  110.30667000   -21.13333000   -35.40000000
  110.32333000   -21.17333000   -21.40000000
  110.34167000   -21.21167000     1.80000000
  110.36000000   -21.25167000     6.10000000
  110.37667000   -21.29167000   -12.70000000
  110.39500000   -21.33167000   -35.70000000
  110.41333000   -21.37000000   -48.40000000
  110.43000000   -21.41000000   -51.80000000
  110.44833000   -21.45000000   -45.60000000
  110.46667000   -21.48833000   -47.50000000
  110.48333000   -21.52833000   -47.50000000
  110.50167000   -21.56833000   -50.60000000
  110.52000000   -21.60833000   -51.70000000
  110.53667000   -21.64667000   -52.20000000
  110.55667000   -21.68667000   -46.40000000
  110.57667000   -21.72667000   -43.50000000
  110.59667000   -21.76667000   -42.20000000
  110.61833000   -21.80667000   -47.10000000
  110.63833000   -21.84500000   -43.80000000
  110.65833000   -21.88500000   -44.40000000
  110.67833000   -21.92500000   -43.10000000
  110.69833000   -21.96500000   -38.60000000
  110.71833000   -22.00500000   -44.50000000
  110.73833000   -22.04500000   -44.70000000
  110.75833000   -22.08333000   -45.70000000
  110.77833000   -22.12333000   -42.40000000
  110.79833000   -22.16333000   -47.00000000
  110.81833000   -22.20333000   -42.70000000
  110.83833000   -22.24333000   -41.90000000
  110.86000000   -22.28167000   -51.80000000
  110.88000000   -22.32167000   -48.80000000
  110.90000000   -22.36167000   -51.80000000
  110.92000000   -22.40167000   -54.80000000
  110.94000000   -22.44167000   -55.90000000
  110.96000000   -22.48000000   -58.30000000
  110.98000000   -22.52000000   -55.50000000
  111.00000000   -22.56000000   -60.10000000
  111.02000000   -22.60000000   -56.20000000
  111.04000000   -22.64000000   -52.20000000
  111.06000000   -22.68000000   -53.10000000
  111.08167000   -22.71833000   -58.70000000
  111.10167000   -22.75833000   -60.30000000
  111.12167000   -22.79833000   -60.90000000
  111.14167000   -22.83833000   -61.60000000
  111.16167000   -22.87833000   -63.60000000
  111.18167000   -22.91667000   -67.40000000
  111.20167000   -22.95667000   -69.10000000
  111.22167000   -22.99667000   -71.80000000
  111.24167000   -23.03667000   -71.40000000
  111.26167000   -23.07667000   -70.90000000
  111.28167000   -23.11667000   -63.80000000
  111.30167000   -23.15500000   -59.00000000
  111.32333000   -23.19500000   -62.40000000
  111.68667000   -23.92667000   -19.80000000
  111.70667000   -23.96667000   -14.90000000
  111.72500000   -24.00667000    -9.70000000
  111.74500000   -24.04667000    -8.50000000
  111.76333000   -24.08833000    -8.10000000
  111.78333000   -24.12833000    -4.30000000
  111.80167000   -24.16833000    -4.50000000
  111.82167000   -24.20833000    -0.70000000
  111.84000000   -24.24833000    -0.20000000
  111.86000000   -24.28833000    -1.90000000
  111.87833000   -24.32833000    -6.40000000
  111.89833000   -24.36833000    -4.20000000
  111.91667000   -24.40833000    -5.90000000
  111.93667000   -24.44833000    -7.40000000
  111.95500000   -24.49000000    -3.30000000
  111.97500000   -24.53000000    -3.50000000
  111.99333000   -24.57000000    -6.50000000
  112.01333000   -24.61000000    -4.20000000
  112.03167000   -24.65000000    -7.80000000
  112.05167000   -24.69000000    -8.50000000
  112.07000000   -24.73000000    -2.90000000
  112.09000000   -24.77000000    -2.40000000
  112.10833000   -24.81000000    -0.60000000
  112.12833000   -24.85000000     3.60000000
  112.14667000   -24.89167000     9.70000000
  112.16667000   -24.93167000    14.30000000
  112.18500000   -24.97167000    17.50000000
  112.20500000   -25.01167000    19.50000000
  112.22333000   -25.05167000    17.10000000
  112.24333000   -25.09167000    22.60000000
  112.26167000   -25.13167000    22.20000000
  112.28167000   -25.17167000    23.70000000
  112.30000000   -25.21167000    24.10000000
  112.32000000   -25.25333000    23.60000000
  112.33833000   -25.29500000    22.10000000
  112.35833000   -25.33833000    15.30000000
  112.37833000   -25.38000000    19.20000000
  112.25500000   -25.98833000     6.00000000
  112.23500000   -26.02333000     3.90000000
  112.21333000   -26.05667000     4.80000000
  112.19167000   -26.09167000     6.20000000
  112.17000000   -26.12667000    12.60000000
  112.15000000   -26.16167000    22.00000000
  112.12833000   -26.19667000    25.50000000
  112.10667000   -26.23167000    22.40000000
  112.08500000   -26.26667000    26.40000000
  112.06500000   -26.30000000    14.70000000
  112.04333000   -26.33500000     3.90000000
  112.02167000   -26.37000000    -6.30000000
  112.00167000   -26.40500000   -14.00000000
  111.98000000   -26.44000000   -20.20000000
  111.95833000   -26.47500000   -22.50000000
  111.93667000   -26.51000000   -21.70000000
  111.85833000   -26.64333000   -32.20000000
  111.83667000   -26.67667000   -31.90000000
  111.81500000   -26.71167000   -32.00000000
  111.79500000   -26.74667000   -29.00000000
  111.77333000   -26.78167000   -29.00000000
  111.75333000   -26.81500000   -18.90000000
  111.73167000   -26.85000000   -17.30000000
  111.71000000   -26.88500000   -11.60000000
  111.69000000   -26.92000000   -12.60000000
  111.66833000   -26.95333000   -17.60000000
  111.64833000   -26.98833000   -23.60000000
  111.62667000   -27.02333000   -28.80000000
  111.60667000   -27.05833000   -32.40000000
  111.58500000   -27.09167000   -33.10000000
  111.56333000   -27.12667000   -35.80000000
  111.54333000   -27.16167000   -33.10000000
  111.52167000   -27.19500000   -33.40000000
  111.50167000   -27.23000000   -33.80000000
  111.48000000   -27.26500000   -32.10000000
  111.51000000   -27.37833000   -32.10000000
  111.54000000   -27.41500000   -28.10000000
  111.57000000   -27.45000000   -29.10000000
  111.60000000   -27.48500000   -29.50000000
  111.63167000   -27.52000000   -31.70000000
  111.66167000   -27.55667000   -31.30000000
  111.69167000   -27.59167000   -32.80000000
  111.72167000   -27.62667000   -39.20000000
  111.75333000   -27.66167000   -42.60000000
  111.78333000   -27.69667000   -43.20000000
  111.81333000   -27.73333000   -35.10000000
  111.84333000   -27.76833000   -26.20000000
  111.87333000   -27.80333000   -49.10000000
  111.90500000   -27.83833000   -49.00000000
  111.93500000   -27.87500000   -46.60000000
  111.96500000   -27.91000000   -34.60000000
  111.99500000   -27.94500000   -35.10000000
  112.02667000   -27.98000000   -40.00000000
  112.05667000   -28.01667000   -40.40000000
  112.08667000   -28.05167000   -48.30000000
  112.11667000   -28.08667000   -38.30000000
  112.14833000   -28.12167000   -27.50000000
  112.17833000   -28.15667000   -29.20000000
  112.20833000   -28.19333000   -32.80000000
  112.23833000   -28.22833000   -42.60000000
  112.27000000   -28.26333000   -40.70000000
  112.30000000   -28.29833000   -45.10000000
  112.33000000   -28.33500000   -52.30000000
  112.36000000   -28.37000000   -51.10000000
  112.39000000   -28.40500000   -44.50000000
  112.42167000   -28.44000000   -39.10000000
  112.45167000   -28.47667000   -43.40000000
  112.48167000   -28.51167000   -44.20000000
  112.51167000   -28.54667000   -52.90000000
  112.54333000   -28.58167000   -67.50000000
  112.57333000   -28.61667000   -62.80000000
  112.60333000   -28.65333000   -57.60000000
  112.63333000   -28.68833000   -46.00000000
  112.66500000   -28.72333000   -40.20000000
  112.69500000   -28.75833000   -41.90000000
  112.72500000   -28.79500000   -40.60000000
  112.75500000   -28.83000000   -40.30000000
  112.78667000   -28.86500000   -45.20000000
  112.81667000   -28.90000000   -54.20000000
  112.84667000   -28.93667000   -58.60000000
  112.87667000   -28.97167000   -53.50000000
  112.90667000   -29.00667000   -50.20000000
  112.93833000   -29.04167000   -50.30000000
  112.96833000   -29.07667000   -55.80000000
  112.99833000   -29.11333000   -58.50000000
  113.02833000   -29.14833000   -69.20000000
  113.06000000   -29.18333000   -78.50000000
  113.09000000   -29.21833000   -67.20000000
  113.12000000   -29.25500000   -62.30000000
  113.15000000   -29.29000000   -67.40000000
  113.18167000   -29.32500000   -71.10000000
  113.21167000   -29.36000000   -80.90000000
  113.24167000   -29.39667000   -76.00000000
  113.27167000   -29.43167000   -72.60000000
  113.30333000   -29.46667000   -73.20000000
  113.33333000   -29.50167000   -69.50000000
  113.36333000   -29.53833000   -59.80000000
  113.39333000   -29.57333000   -53.50000000
  113.42333000   -29.60833000   -56.60000000
  113.45500000   -29.64333000   -56.90000000
  113.48500000   -29.67833000   -58.40000000
  113.51500000   -29.71500000   -64.90000000
  113.66500000   -29.89333000   -74.50000000
  113.69500000   -29.93000000   -73.80000000
  113.72500000   -29.96667000   -68.40000000
  113.75333000   -30.00333000   -69.40000000
  113.78333000   -30.04000000   -65.10000000
  113.81167000   -30.07667000   -65.20000000
  113.84167000   -30.11333000   -64.80000000
  113.87167000   -30.15000000   -61.90000000
  113.90000000   -30.18500000   -60.70000000
  113.93000000   -30.22167000   -63.70000000
  113.96000000   -30.25833000   -68.90000000
  113.98833000   -30.29500000   -71.30000000
  114.01833000   -30.33167000   -73.70000000
  114.04667000   -30.36833000   -71.70000000
  114.07667000   -30.40500000   -74.20000000
  114.10667000   -30.44167000   -78.90000000
  114.13500000   -30.47833000   -78.90000000
   93.73167000   -20.64167000   -32.10000000
   93.68833000   -20.64167000   -35.50000000
   93.64333000   -20.64167000   -31.90000000
   93.59833000   -20.64167000   -26.10000000
   93.55333000   -20.64167000   -26.00000000
   93.50833000   -20.64167000   -32.60000000
   93.46333000   -20.64167000   -33.10000000
   93.41667000   -20.64167000   -33.90000000
   93.37167000   -20.64000000   -31.20000000
   93.32500000   -20.64000000   -33.50000000
   93.28000000   -20.64000000   -29.80000000
   93.23333000   -20.64000000   -32.50000000
   93.18833000   -20.64000000   -42.10000000
   93.14167000   -20.64000000   -48.70000000
   93.09667000   -20.63833000   -52.20000000
   93.05167000   -20.63833000   -55.30000000
   93.00500000   -20.63833000   -50.70000000
   92.96000000   -20.63833000   -39.20000000
   92.91333000   -20.63833000   -28.90000000
   92.86833000   -20.63833000   -23.50000000
   92.82167000   -20.63667000   -21.90000000
   92.77667000   -20.63667000   -25.50000000
   92.73000000   -20.63667000   -24.20000000
   92.68500000   -20.63667000   -24.20000000
   92.63833000   -20.63667000   -23.90000000
   92.59333000   -20.63667000   -22.50000000
   92.54667000   -20.63500000   -21.30000000
   92.50167000   -20.63500000   -23.10000000
   92.45500000   -20.63500000   -23.00000000
   92.41000000   -20.63500000   -23.70000000
   92.36333000   -20.63500000   -22.30000000
   92.31833000   -20.63500000   -18.80000000
   92.27167000   -20.63333000   -18.20000000
   92.22667000   -20.63333000   -14.20000000
   91.83333000   -20.59167000   -21.60000000
   91.78833000   -20.59167000   -20.80000000
   91.74167000   -20.59167000   -27.50000000
   91.69667000   -20.59000000   -21.50000000
   91.65167000   -20.59000000   -18.80000000
   91.60667000   -20.59000000   -10.20000000
   91.56167000   -20.58833000    -5.30000000
   91.51667000   -20.58833000    -4.50000000
   91.47167000   -20.58833000    -5.20000000
   91.42667000   -20.58667000    -4.10000000
   91.38000000   -20.58667000    -3.30000000
   91.33500000   -20.58667000    -4.30000000
   91.13833000   -20.62000000   -19.90000000
   91.09667000   -20.63333000   -17.40000000
   91.05333000   -20.64833000    -1.70000000
   91.01167000   -20.66167000    -4.80000000
   90.96833000   -20.67500000   -21.70000000
   90.92667000   -20.69000000   -18.70000000
   90.88333000   -20.70333000   -11.30000000
   90.84167000   -20.71833000     4.20000000
   90.79833000   -20.73167000    31.40000000
   90.75500000   -20.74500000    39.30000000
   90.71333000   -20.76000000    13.70000000
   90.67000000   -20.77333000    -5.10000000
   90.62833000   -20.78833000   -18.00000000
   90.58500000   -20.80167000   -20.50000000
   90.54333000   -20.81500000   -26.80000000
   90.50000000   -20.83000000   -29.70000000
   90.45833000   -20.84333000   -31.80000000
   90.41500000   -20.85667000   -35.80000000
   90.37333000   -20.87167000   -34.30000000
   90.33000000   -20.88500000   -32.30000000
   90.28833000   -20.89667000   -32.70000000
   90.24500000   -20.91000000   -30.30000000
   90.20333000   -20.92333000   -30.00000000
   90.16000000   -20.93500000   -20.10000000
   90.02833000   -20.95500000   -24.40000000
   89.98167000   -20.95500000   -19.60000000
   89.93500000   -20.95500000    -8.20000000
   89.89000000   -20.95333000    -4.80000000
   89.84333000   -20.95333000    -6.80000000
   89.79667000   -20.95333000    -7.60000000
   89.75167000   -20.95333000   -12.90000000
   89.70500000   -20.95333000   -19.10000000
   89.65833000   -20.95333000   -22.80000000
   89.61333000   -20.95333000   -20.60000000
   89.56667000   -20.95167000   -18.30000000
   89.52000000   -20.95167000   -16.00000000
   89.47500000   -20.95167000   -19.80000000
   89.42833000   -20.95167000   -18.60000000
   89.38167000   -20.95167000   -23.80000000
   89.33667000   -20.95167000   -23.30000000
   89.29000000   -20.95167000   -22.90000000
   89.24333000   -20.95167000   -28.30000000
   89.19833000   -20.95000000   -37.70000000
   89.15167000   -20.95000000   -51.90000000
   89.10500000   -20.95000000   -58.20000000
   89.06000000   -20.95000000   -63.20000000
   89.01333000   -20.95000000   -63.80000000
   88.96833000   -20.95000000   -59.70000000
   88.92167000   -20.95000000   -48.80000000
   88.87500000   -20.95000000   -43.20000000
   88.83000000   -20.94833000   -46.20000000
   88.78333000   -20.94833000   -48.50000000
   88.73667000   -20.94833000   -48.10000000
   88.69167000   -20.94833000   -32.00000000
   88.64500000   -20.94833000   -13.30000000
   88.59833000   -20.94833000     6.20000000
   88.55333000   -20.94833000    21.10000000
   88.50667000   -20.94667000    12.10000000
   88.46000000   -20.94667000    -2.10000000
   88.41500000   -20.94667000   -11.50000000
   88.36833000   -20.94667000   -15.30000000
   88.32167000   -20.94667000   -14.90000000
   88.27667000   -20.94667000   -12.80000000
   88.23000000   -20.94667000   -10.60000000
   88.18333000   -20.94667000   -12.90000000
   88.13833000   -20.94500000   -11.80000000
   88.09167000   -20.94500000   -21.50000000
   88.04500000   -20.94500000   -23.20000000
   88.00000000   -20.94500000   -23.70000000
   87.95333000   -20.94500000   -21.70000000
   87.90667000   -20.94500000   -18.10000000
   87.86167000   -20.94500000   -17.60000000
   87.81500000   -20.94500000   -18.20000000
   87.77000000   -20.94333000   -16.50000000
   87.72333000   -20.94333000   -11.80000000
   87.67667000   -20.94333000    -8.80000000
   87.63167000   -20.94333000   -13.10000000
   87.58500000   -20.94333000    -9.90000000
   87.53833000   -20.94333000    -6.50000000
   87.49333000   -20.94333000     4.10000000
   87.44667000   -20.94167000     6.90000000
   87.40000000   -20.94167000     5.60000000
   87.35500000   -20.94167000     4.90000000
   87.30833000   -20.94167000     7.50000000
   87.26167000   -20.94167000     8.30000000
   87.21667000   -20.94167000     9.20000000
   87.17000000   -20.94167000    -0.60000000
   87.12333000   -20.94167000     4.30000000
   87.07833000   -20.94000000     5.00000000
   87.03167000   -20.94000000     4.80000000
