   57.62011000    17.89232000   -32.00000000
   57.62016000    17.89210000   -32.60000000
   57.62020000    17.89188000   -32.90000000
   57.62027000    17.89166000   -32.40000000
   57.62034000    17.89144000   -32.60000000
   57.62043000    17.89124000   -32.10000000
   57.62052000    17.89104000   -31.60000000
   57.62060000    17.89084000   -31.40000000
   57.62069000    17.89063000   -31.80000000
   57.62075000    17.89041000   -31.90000000
   57.62082000    17.89019000   -31.90000000
   57.62089000    17.89001000   -32.10000000
   57.62096000    17.88984000   -31.80000000
   57.62104000    17.88966000   -32.00000000
   57.62111000    17.88949000   -32.10000000
   57.62116000    17.88925000   -32.70000000
   57.62122000    17.88901000   -32.60000000
   57.62128000    17.88878000   -32.80000000
   57.62133000    17.88854000   -31.80000000
   57.62140000    17.88835000   -32.50000000
   57.62146000    17.88816000   -32.30000000
   57.62152000    17.88797000   -32.40000000
   57.62159000    17.88778000   -31.70000000
   57.62167000    17.88760000   -31.40000000
   57.62174000    17.88741000   -31.10000000
   57.62182000    17.88722000   -31.20000000
   57.62190000    17.88703000   -31.10000000
   57.62199000    17.88686000   -31.00000000
   57.62208000    17.88670000   -30.90000000
   57.62218000    17.88655000   -30.70000000
   57.62228000    17.88640000   -30.60000000
   57.62236000    17.88625000   -31.30000000
   57.62244000    17.88609000   -30.80000000
   57.62249000    17.88592000   -31.70000000
   57.62254000    17.88575000   -30.90000000
   57.62262000    17.88559000   -30.70000000
   57.62270000    17.88543000   -30.90000000
   57.62279000    17.88527000   -30.20000000
   57.62289000    17.88511000   -30.30000000
   57.62297000    17.88494000   -29.90000000
   57.62305000    17.88478000   -30.90000000
   57.62314000    17.88462000   -31.40000000
   57.62324000    17.88447000   -31.40000000
   57.62333000    17.88432000   -31.50000000
   57.62342000    17.88416000   -31.30000000
   57.62349000    17.88398000   -30.40000000
   57.62355000    17.88381000   -30.30000000
   57.62361000    17.88363000   -30.10000000
   57.62367000    17.88345000   -29.40000000
   57.62377000    17.88328000   -28.60000000
   57.62387000    17.88311000   -28.40000000
   57.62398000    17.88298000   -28.60000000
   57.62409000    17.88284000   -28.10000000
   57.62421000    17.88272000   -28.60000000
   57.62433000    17.88260000   -28.80000000
   57.62445000    17.88247000   -28.40000000
   57.62456000    17.88233000   -28.60000000
   57.62466000    17.88217000   -28.60000000
   57.62475000    17.88200000   -27.90000000
   57.62483000    17.88176000   -28.50000000
   57.62491000    17.88152000   -28.70000000
   57.62495000    17.88130000   -28.90000000
   57.62588000    17.87743000   -28.10000000
   57.62593000    17.87728000   -27.40000000
   57.62603000    17.87709000   -26.60000000
   57.62612000    17.87690000   -26.50000000
   57.62622000    17.87671000   -27.40000000
   57.62631000    17.87652000   -27.90000000
   57.62635000    17.87630000   -28.70000000
   57.62638000    17.87609000   -28.60000000
   57.62641000    17.87587000   -27.80000000
   57.62644000    17.87566000   -28.30000000
   57.62647000    17.87544000   -28.30000000
   57.62650000    17.87523000   -28.10000000
   57.62653000    17.87501000   -27.60000000
   57.62657000    17.87480000   -27.10000000
   57.62660000    17.87458000   -27.00000000
   57.62669000    17.87438000   -26.30000000
   57.62679000    17.87418000   -26.00000000
   57.62689000    17.87398000   -25.80000000
   57.62699000    17.87378000   -25.10000000
   57.62507000    17.88447000   -28.40000000
   57.62553000    17.88716000   -29.30000000
   57.62596000    17.88996000   -30.40000000
   57.62638000    17.89278000   -31.40000000
   57.62681000    17.89559000   -31.20000000
   57.62724000    17.89840000   -31.10000000
   57.62767000    17.90121000   -31.30000000
   57.62809000    17.90402000   -30.80000000
   57.62852000    17.90683000   -30.10000000
   57.62895000    17.90964000   -30.30000000
   57.62937000    17.91245000   -29.70000000
   57.62980000    17.91526000   -28.10000000
   57.63029000    17.91823000   -29.40000000
   57.63077000    17.92120000   -28.90000000
   57.63126000    17.92417000   -27.20000000
   57.63175000    17.92713000   -27.30000000
   57.63223000    17.93010000   -27.40000000
   57.63272000    17.93307000   -26.60000000
   57.63321000    17.93604000   -26.90000000
   57.63369000    17.93901000   -26.80000000
   57.63418000    17.94198000   -26.40000000
   57.63468000    17.94497000   -26.50000000
   57.63518000    17.94797000   -26.50000000
   57.63568000    17.95096000   -27.00000000
   57.63619000    17.95396000   -27.00000000
   57.63669000    17.95696000   -26.60000000
   57.63719000    17.95995000   -25.60000000
   57.63769000    17.96295000   -25.30000000
   57.63819000    17.96594000   -25.50000000
   57.63869000    17.96894000   -26.70000000
   57.63919000    17.97193000   -25.80000000
   57.63969000    17.97493000   -26.60000000
   57.64018000    17.97792000   -27.10000000
   57.64068000    17.98092000   -27.10000000
   57.64117000    17.98391000   -27.10000000
   57.64166000    17.98691000   -26.80000000
   57.64216000    17.98990000   -26.00000000
   57.64265000    17.99289000   -26.30000000
   57.64315000    17.99589000   -27.40000000
   57.64364000    17.99888000   -26.60000000
   57.64413000    18.00188000   -26.20000000
   57.64462000    18.00478000   -26.40000000
   57.64511000    18.00769000   -26.50000000
   57.64560000    18.01060000   -25.40000000
   57.64608000    18.01350000   -25.50000000
   57.64657000    18.01641000   -24.80000000
   57.64706000    18.01931000   -24.40000000
   57.64755000    18.02222000   -24.70000000
   57.64804000    18.02513000   -23.90000000
   57.64852000    18.02803000   -23.30000000
   57.64901000    18.03094000   -23.00000000
   57.64947000    18.03383000   -24.10000000
   57.64992000    18.03672000   -23.20000000
   57.65038000    18.03962000   -22.70000000
   57.65083000    18.04251000   -23.20000000
   57.65129000    18.04540000   -22.50000000
   57.65174000    18.04830000   -22.90000000
   57.65220000    18.05119000   -22.10000000
   57.65265000    18.05408000   -21.50000000
   57.65310000    18.05697000   -21.60000000
   57.65356000    18.05987000   -21.20000000
   57.65406000    18.06274000   -20.20000000
   57.65456000    18.06562000   -20.40000000
   57.65506000    18.06849000   -19.10000000
   57.65556000    18.07137000   -19.10000000
   57.65606000    18.07424000   -18.60000000
   57.65656000    18.07712000   -19.50000000
   57.65705000    18.07999000   -18.80000000
   57.65755000    18.08286000   -19.10000000
   57.65805000    18.08574000   -19.40000000
   57.65855000    18.08861000   -20.10000000
   57.65901000    18.09146000   -20.10000000
   57.65947000    18.09430000   -18.80000000
   57.65994000    18.09715000   -18.90000000
   57.66040000    18.10000000   -19.10000000
   57.66086000    18.10284000   -18.60000000
   57.66132000    18.10569000   -18.20000000
   57.66178000    18.10853000   -17.70000000
   57.66224000    18.11138000   -17.10000000
   57.66270000    18.11422000   -18.00000000
   57.66316000    18.11707000   -17.10000000
   57.66358000    18.11990000   -18.10000000
   57.66401000    18.12273000   -16.80000000
   57.66443000    18.12557000   -18.30000000
   57.66485000    18.12840000   -16.60000000
   57.66527000    18.13124000   -16.90000000
   57.66569000    18.13407000   -17.00000000
   57.66612000    18.13690000   -15.60000000
   57.66654000    18.13974000   -14.90000000
   57.66696000    18.14257000   -14.40000000
   57.66738000    18.14540000   -13.80000000
   57.66781000    18.14830000   -13.90000000
   57.66823000    18.15120000   -13.90000000
   57.66866000    18.15410000   -13.60000000
   57.66908000    18.15699000   -13.90000000
   57.66951000    18.15989000   -13.40000000
   57.66993000    18.16279000   -12.90000000
   57.67036000    18.16569000   -12.60000000
   57.67078000    18.16859000   -12.20000000
   57.67121000    18.17149000   -12.30000000
   57.67163000    18.17439000   -12.70000000
   57.67208000    18.17726000   -12.00000000
   57.67252000    18.18014000   -10.70000000
   57.67296000    18.18301000   -10.10000000
   57.67341000    18.18589000    -8.80000000
   57.67385000    18.18877000    -8.70000000
   57.67941000    18.21969000   -12.40000000
   57.67943000    18.21951000   -12.30000000
   57.67949000    18.21943000   -11.70000000
   57.67956000    18.21935000   -11.80000000
   57.67961000    18.21935000   -11.90000000
   57.67967000    18.21935000   -11.80000000
   57.67972000    18.21938000   -11.60000000
   57.67977000    18.21940000   -11.60000000
   57.67984000    18.21938000   -11.90000000
   57.67990000    18.21936000   -12.20000000
   57.67997000    18.21932000   -13.40000000
   57.68004000    18.21928000   -12.60000000
   57.68010000    18.21924000   -11.90000000
   57.68017000    18.21920000   -12.10000000
   57.68023000    18.21918000   -12.30000000
   57.68030000    18.21916000   -11.10000000
   57.68040000    18.21914000   -10.40000000
   57.68050000    18.21913000    -9.30000000
   57.68059000    18.21912000    -8.60000000
   57.68069000    18.21911000    -8.60000000
   57.68083000    18.21911000    -8.50000000
   57.68098000    18.21911000    -8.40000000
   57.68112000    18.21909000    -8.60000000
   57.68126000    18.21907000    -8.20000000
   57.68139000    18.21901000    -8.60000000
   57.68151000    18.21895000    -8.80000000
   57.68161000    18.21887000    -9.00000000
   57.68170000    18.21879000    -9.50000000
   57.68175000    18.21868000   -10.30000000
   57.68180000    18.21858000   -11.10000000
   57.68183000    18.21846000   -11.60000000
   57.68186000    18.21835000   -11.10000000
   57.68190000    18.21825000   -11.80000000
   57.68193000    18.21815000   -10.30000000
   57.68197000    18.21807000   -10.10000000
   57.68201000    18.21800000    -9.80000000
   57.68206000    18.21793000   -10.40000000
   57.68210000    18.21787000   -10.40000000
   57.68215000    18.21781000   -10.40000000
   57.68219000    18.21775000   -10.40000000
   57.68225000    18.21770000   -10.20000000
   57.68232000    18.21766000    -9.90000000
   57.68237000    18.21764000    -9.90000000
   57.68243000    18.21762000    -9.30000000
   57.68244000    18.21759000    -9.90000000
   57.68245000    18.21757000    -9.40000000
   57.68247000    18.21754000   -11.10000000
   57.68248000    18.21751000    -9.80000000
   57.68250000    18.21746000   -10.60000000
   57.68252000    18.21741000   -10.20000000
   57.68254000    18.21736000   -10.20000000
   57.68257000    18.21731000   -10.60000000
   57.68258000    18.21725000   -10.30000000
   57.68260000    18.21719000   -11.10000000
   57.68259000    18.21712000   -10.60000000
   57.68259000    18.21705000   -10.30000000
   57.68255000    18.21698000   -11.70000000
   57.68252000    18.21692000   -11.60000000
   57.68250000    18.21688000   -11.40000000
   57.68247000    18.21684000   -12.10000000
   57.68249000    18.21678000   -11.40000000
   57.68252000    18.21673000   -11.40000000
   57.68252000    18.21663000   -11.80000000
   57.68252000    18.21653000   -11.90000000
   57.68252000    18.21644000   -11.40000000
   57.68252000    18.21634000   -12.00000000
   57.68251000    18.21626000   -12.10000000
   57.68249000    18.21619000   -12.10000000
   57.68249000    18.21611000   -11.80000000
   57.68249000    18.21603000   -12.30000000
   57.68251000    18.21596000   -11.70000000
   57.68252000    18.21588000   -11.60000000
   57.68256000    18.21581000   -10.90000000
   57.68259000    18.21575000   -10.90000000
   57.68262000    18.21568000   -11.40000000
   57.68265000    18.21561000   -11.40000000
   57.68269000    18.21556000   -12.80000000
   57.68272000    18.21550000   -11.50000000
   57.68275000    18.21545000   -10.90000000
   57.68278000    18.21539000   -11.10000000
   57.68282000    18.21531000   -11.00000000
   57.68286000    18.21524000   -11.10000000
   57.68290000    18.21513000   -11.20000000
   57.68293000    18.21502000   -11.10000000
   57.68297000    18.21491000   -11.90000000
   57.68301000    18.21481000   -11.30000000
   57.68307000    18.21470000   -11.30000000
   57.68313000    18.21459000   -11.30000000
   57.68317000    18.21452000   -11.80000000
   57.68322000    18.21446000   -10.80000000
   57.68327000    18.21439000   -10.50000000
   57.68332000    18.21433000   -11.40000000
   57.68336000    18.21428000   -11.90000000
   57.68341000    18.21423000   -11.40000000
   57.68346000    18.21415000   -11.40000000
   57.68352000    18.21407000   -11.10000000
   57.68357000    18.21400000   -10.60000000
   57.68363000    18.21392000   -10.90000000
   57.68370000    18.21385000   -11.30000000
   57.68377000    18.21378000   -11.30000000
   57.68384000    18.21373000   -10.90000000
   57.68391000    18.21368000   -11.10000000
   57.68398000    18.21361000   -11.10000000
   57.68405000    18.21354000   -11.40000000
   57.68410000    18.21348000   -11.30000000
   57.68416000    18.21342000   -12.00000000
   57.68421000    18.21337000   -11.30000000
   57.68426000    18.21331000   -11.40000000
   57.68434000    18.21324000   -11.60000000
   57.68442000    18.21317000   -10.60000000
   57.68451000    18.21312000   -10.30000000
   57.68460000    18.21306000   -10.40000000
   57.68466000    18.21300000   -10.30000000
   57.68472000    18.21293000   -10.70000000
   57.68482000    18.21285000   -11.40000000
   57.68491000    18.21277000   -11.40000000
   57.68500000    18.21267000   -11.90000000
   57.68508000    18.21257000   -11.30000000
   57.68520000    18.21251000   -11.10000000
   57.68532000    18.21246000   -10.60000000
   57.68550000    18.21239000   -10.40000000
   57.68568000    18.21232000   -10.90000000
   57.68574000    18.21235000   -10.40000000
   57.68580000    18.21238000   -10.90000000
   57.68591000    18.21241000   -11.20000000
   57.68602000    18.21243000   -10.60000000
   57.68615000    18.21243000   -10.10000000
   57.68628000    18.21242000   -10.10000000
   57.68635000    18.21249000   -10.60000000
   57.68643000    18.21257000   -10.80000000
   57.68651000    18.21265000   -11.90000000
   57.68658000    18.21272000   -11.30000000
   57.68666000    18.21282000   -10.90000000
   57.68673000    18.21292000   -10.90000000
   57.68681000    18.21302000   -11.10000000
   57.68688000    18.21313000   -11.50000000
   57.68693000    18.21329000   -11.80000000
   57.68698000    18.21345000   -11.60000000
   57.68695000    18.21364000   -11.30000000
   57.68692000    18.21383000   -10.80000000
   57.68701000    18.21391000   -10.40000000
   57.68710000    18.21400000   -10.10000000
   57.68720000    18.21407000    -9.70000000
   57.68731000    18.21415000    -9.30000000
   57.68742000    18.21422000    -9.30000000
   57.68752000    18.21429000    -9.60000000
   57.68758000    18.21435000    -9.50000000
   57.68764000    18.21441000    -9.40000000
   57.68770000    18.21445000   -10.40000000
   57.68777000    18.21450000   -10.80000000
   57.68780000    18.21452000   -10.40000000
   57.68784000    18.21455000    -9.80000000
   57.68794000    18.21456000    -9.90000000
   57.68804000    18.21456000    -9.80000000
   57.68814000    18.21456000    -8.90000000
   57.68824000    18.21456000    -8.90000000
   57.68830000    18.21456000    -9.60000000
   57.68836000    18.21455000    -9.40000000
   57.68847000    18.21452000    -9.40000000
   57.68858000    18.21449000    -8.60000000
   57.68869000    18.21446000    -7.40000000
   57.68880000    18.21444000    -7.60000000
   57.68891000    18.21441000    -7.40000000
   57.68902000    18.21438000    -7.30000000
   57.68913000    18.21436000    -8.30000000
   57.68924000    18.21433000    -8.00000000
   57.68936000    18.21431000    -8.40000000
   57.68948000    18.21430000    -8.60000000
   57.68961000    18.21430000    -7.90000000
   57.68975000    18.21430000    -8.00000000
   57.68986000    18.21426000    -7.60000000
   57.68997000    18.21422000    -7.60000000
   57.69008000    18.21418000    -7.80000000
   57.69019000    18.21413000    -8.10000000
   57.69030000    18.21406000    -7.70000000
   57.69041000    18.21399000    -7.80000000
   57.69054000    18.21398000    -7.10000000
   57.69067000    18.21397000    -7.40000000
   57.69081000    18.21394000    -6.70000000
   57.69095000    18.21392000    -7.10000000
   57.69110000    18.21391000    -7.20000000
   57.69124000    18.21390000    -8.10000000
   57.69137000    18.21387000    -8.30000000
   57.69150000    18.21383000    -7.60000000
   57.69163000    18.21380000    -7.70000000
   57.68592000    18.21697000    -8.30000000
   57.68410000    18.21817000   -10.00000000
   57.68229000    18.21937000    -9.50000000
   57.68047000    18.22057000    -9.30000000
   57.67866000    18.22177000    -8.10000000
   57.67685000    18.22297000    -7.10000000
   57.67503000    18.22416000    -6.70000000
   57.67322000    18.22536000    -6.60000000
   57.67140000    18.22656000    -6.10000000
   57.64616000    18.24138000    -8.10000000
   57.64602000    18.24131000    -6.80000000
   57.64588000    18.24124000    -4.50000000
   57.64574000    18.24117000    -5.30000000
   57.64559000    18.24109000    -5.20000000
   57.64544000    18.24101000    -6.10000000
   57.64530000    18.24091000    -7.20000000
   57.64515000    18.24082000    -8.40000000
   57.64501000    18.24073000    -9.90000000
   57.64486000    18.24063000    -9.60000000
   57.64470000    18.24056000   -10.30000000
   57.64455000    18.24049000   -11.10000000
   57.64438000    18.24040000   -10.90000000
   57.64421000    18.24031000   -11.20000000
   57.64405000    18.24022000   -10.90000000
   57.64388000    18.24013000   -10.40000000
   57.64378000    18.24003000    -9.10000000
   57.64368000    18.23993000    -8.20000000
   57.64367000    18.23977000    -7.60000000
   57.64366000    18.23962000    -6.90000000
   57.64367000    18.23943000    -6.90000000
   57.64369000    18.23925000    -7.20000000
   57.64371000    18.23910000    -7.30000000
   57.64374000    18.23896000    -7.00000000
   57.64376000    18.23881000    -6.90000000
   57.64379000    18.23866000    -6.90000000
   57.64381000    18.23850000    -6.90000000
   57.64382000    18.23833000    -6.60000000
   57.64384000    18.23815000    -7.20000000
   57.64386000    18.23798000    -7.00000000
   57.64385000    18.23781000    -6.70000000
   57.64384000    18.23764000    -7.50000000
   57.64389000    18.23748000    -7.40000000
   57.64394000    18.23732000    -6.60000000
   57.64396000    18.23717000    -6.50000000
   57.64398000    18.23701000    -6.60000000
   57.64402000    18.23684000    -6.40000000
   57.64406000    18.23668000    -6.60000000
   57.64410000    18.23651000    -7.30000000
   57.64413000    18.23634000    -7.40000000
   57.64415000    18.23618000    -7.30000000
   57.64417000    18.23601000    -6.80000000
   57.64422000    18.23584000    -7.20000000
   57.64426000    18.23568000    -6.90000000
   57.64431000    18.23552000    -7.10000000
   57.64436000    18.23536000    -7.40000000
   57.64437000    18.23519000    -8.10000000
   57.64438000    18.23503000    -7.90000000
   57.64440000    18.23487000    -7.40000000
   57.64442000    18.23472000    -7.60000000
   57.64447000    18.23456000    -7.70000000
   57.64452000    18.23439000    -7.90000000
   57.64454000    18.23424000    -7.60000000
   57.64457000    18.23408000    -7.90000000
   57.64458000    18.23390000    -9.10000000
   57.64459000    18.23372000    -8.80000000
   57.64462000    18.23354000    -9.10000000
   57.64465000    18.23335000    -9.10000000
   57.64469000    18.23320000    -8.90000000
   57.64473000    18.23304000    -8.90000000
   57.64474000    18.23291000    -9.10000000
   57.64474000    18.23277000    -8.80000000
   57.64478000    18.23262000    -9.00000000
   57.64482000    18.23248000    -8.90000000
   57.64487000    18.23233000    -9.30000000
   57.64492000    18.23218000    -8.90000000
   57.64495000    18.23206000    -8.80000000
   57.64498000    18.23195000    -8.80000000
   57.64505000    18.23180000    -8.80000000
   57.64511000    18.23164000    -8.60000000
   57.64515000    18.23148000    -8.80000000
   57.64519000    18.23132000    -8.90000000
   57.64525000    18.23117000    -8.70000000
   57.64531000    18.23102000    -8.90000000
   57.64536000    18.23084000    -8.40000000
   57.64542000    18.23066000    -9.10000000
   57.64544000    18.23053000    -9.90000000
   57.64546000    18.23040000    -9.30000000
   57.64549000    18.23029000    -9.60000000
   57.64553000    18.23018000   -10.20000000
   57.64556000    18.23006000   -10.10000000
   57.64559000    18.22995000   -10.10000000
   57.64562000    18.22988000   -11.10000000
   57.64564000    18.22982000   -11.60000000
   57.64566000    18.22972000   -10.60000000
   57.64569000    18.22963000   -10.90000000
   57.64574000    18.22952000   -11.60000000
   57.64579000    18.22940000   -11.70000000
   57.64585000    18.22929000   -11.40000000
   57.64590000    18.22918000   -11.00000000
   57.64597000    18.22909000   -11.00000000
   57.64604000    18.22900000   -10.50000000
   57.64613000    18.22892000    -9.80000000
   57.64623000    18.22883000    -9.90000000
   57.64632000    18.22878000    -9.60000000
   57.64642000    18.22874000    -9.30000000
   57.64650000    18.22868000    -8.80000000
   57.64657000    18.22863000    -8.70000000
   57.64670000    18.22860000    -8.80000000
   57.64683000    18.22857000    -9.30000000
   57.64691000    18.22851000    -9.30000000
   57.64698000    18.22846000    -9.90000000
   57.64705000    18.22841000    -9.80000000
   57.64711000    18.22836000   -10.40000000
   57.64718000    18.22827000   -10.80000000
   57.64725000    18.22819000   -10.10000000
   57.64733000    18.22811000   -10.40000000
   57.64740000    18.22804000    -9.70000000
   57.64747000    18.22796000   -10.40000000
   57.64755000    18.22789000   -10.30000000
   57.64761000    18.22781000    -9.90000000
   57.64767000    18.22773000   -10.10000000
   57.64773000    18.22765000    -9.70000000
   57.64779000    18.22757000    -9.80000000
   57.64788000    18.22749000    -9.30000000
   57.64797000    18.22741000    -9.90000000
   57.64806000    18.22733000    -9.60000000
   57.64815000    18.22725000    -8.90000000
   57.64821000    18.22717000    -9.40000000
   57.64828000    18.22709000    -9.40000000
   57.64834000    18.22701000   -10.00000000
   57.64841000    18.22694000   -10.00000000
   57.64848000    18.22687000   -10.30000000
   57.64855000    18.22679000    -9.80000000
   57.64861000    18.22669000   -10.10000000
   57.64868000    18.22660000   -10.00000000
   57.64873000    18.22653000   -10.10000000
   57.64879000    18.22647000   -10.10000000
   57.64899000    18.22620000   -10.50000000
   57.64903000    18.22614000   -11.10000000
   57.64907000    18.22608000   -11.30000000
   57.64909000    18.22598000   -12.30000000
   57.64910000    18.22589000   -11.30000000
   57.64915000    18.22577000   -11.00000000
   57.64920000    18.22565000   -10.50000000
   57.64924000    18.22553000   -10.50000000
   57.64929000    18.22541000   -10.10000000
   57.64931000    18.22527000   -11.40000000
   57.64933000    18.22513000   -11.60000000
   57.64933000    18.22500000   -10.60000000
   57.64934000    18.22486000   -10.60000000
   57.64941000    18.22475000   -12.40000000
   57.64949000    18.22464000   -11.60000000
   57.64949000    18.22453000   -12.20000000
   57.64949000    18.22442000   -12.70000000
   57.64943000    18.22426000   -13.40000000
   57.64938000    18.22410000   -13.30000000
   57.64934000    18.22392000   -14.10000000
   57.64930000    18.22374000   -15.30000000
   57.64926000    18.22357000   -15.40000000
   57.64922000    18.22339000   -15.40000000
   57.64918000    18.22322000   -15.30000000
   57.64913000    18.22304000   -15.50000000
   57.64912000    18.22290000   -14.80000000
   57.64910000    18.22277000   -15.30000000
   57.64908000    18.22263000   -15.50000000
   57.64906000    18.22249000   -15.10000000
   57.64906000    18.22237000   -15.90000000
   57.64907000    18.22226000   -14.90000000
   57.64910000    18.22215000   -14.40000000
   57.64913000    18.22204000   -14.50000000
   57.64917000    18.22191000   -14.80000000
   57.64922000    18.22178000   -14.50000000
   57.64927000    18.22162000   -14.40000000
   57.64932000    18.22146000   -14.40000000
   57.64937000    18.22130000   -14.00000000
   57.64942000    18.22114000   -14.20000000
   57.64949000    18.22095000   -14.40000000
   57.64956000    18.22076000   -13.50000000
   57.64963000    18.22058000   -14.30000000
   57.64970000    18.22039000   -13.90000000
   57.64977000    18.22020000   -14.90000000
   57.64984000    18.22001000   -14.40000000
   57.64990000    18.21983000   -14.10000000
   57.64997000    18.21964000   -13.80000000
   57.65003000    18.21944000   -14.60000000
   57.65008000    18.21925000   -14.70000000
   57.65013000    18.21905000   -14.90000000
   57.65019000    18.21886000   -14.80000000
   57.65024000    18.21866000   -14.80000000
   57.65029000    18.21847000   -14.40000000
   57.65035000    18.21829000   -14.90000000
   57.65042000    18.21811000   -15.40000000
   57.65046000    18.21795000   -14.80000000
   57.65050000    18.21779000   -15.30000000
   57.65054000    18.21763000   -15.30000000
   57.65059000    18.21747000   -15.30000000
   57.65063000    18.21731000   -16.10000000
   57.65067000    18.21715000   -16.10000000
   57.65072000    18.21700000   -16.10000000
   57.65076000    18.21684000   -15.70000000
   57.65077000    18.21665000   -15.60000000
   57.65079000    18.21647000   -15.40000000
   57.65085000    18.21629000   -15.40000000
   57.65090000    18.21610000   -15.90000000
   57.65094000    18.21592000   -15.60000000
   57.65098000    18.21573000   -15.80000000
   57.65101000    18.21555000   -15.40000000
   57.65105000    18.21537000   -16.20000000
   57.65109000    18.21518000   -15.60000000
   57.65112000    18.21500000   -16.20000000
   57.65115000    18.21481000   -15.10000000
   57.65117000    18.21463000   -15.60000000
   57.65118000    18.21446000   -15.60000000
   57.65119000    18.21430000   -16.30000000
   57.65122000    18.21414000   -15.60000000
   57.65125000    18.21398000   -15.70000000
   57.65127000    18.21382000   -15.40000000
   57.65129000    18.21366000   -15.90000000
   57.65131000    18.21349000   -16.00000000
   57.65133000    18.21333000   -16.40000000
   57.65135000    18.21317000   -16.10000000
   57.65137000    18.21300000   -16.60000000
   57.65138000    18.21278000   -16.30000000
   57.65138000    18.21256000   -16.60000000
   57.65139000    18.21234000   -16.40000000
   57.65139000    18.21211000   -16.10000000
   57.65137000    18.21195000   -16.30000000
   57.65135000    18.21179000   -16.10000000
   57.65133000    18.21163000   -16.30000000
   57.65131000    18.21147000   -16.70000000
   57.65130000    18.21130000   -16.20000000
   57.65129000    18.21114000   -16.30000000
   57.65126000    18.21099000   -16.20000000
   57.65124000    18.21085000   -17.10000000
   57.65119000    18.21070000   -16.90000000
   57.65114000    18.21055000   -16.90000000
   57.65109000    18.21040000   -17.80000000
   57.65105000    18.21025000   -17.60000000
   57.65100000    18.21011000   -17.40000000
   57.65095000    18.20996000   -17.60000000
   57.65088000    18.20980000   -17.30000000
   57.65081000    18.20964000   -17.80000000
   57.65075000    18.20948000   -16.90000000
   57.65068000    18.20933000   -17.30000000
   57.65061000    18.20917000   -17.60000000
   57.65054000    18.20901000   -17.30000000
   57.65048000    18.20889000   -17.80000000
   57.65042000    18.20876000   -17.60000000
   57.65036000    18.20867000   -18.30000000
   57.65029000    18.20857000   -18.50000000
   57.64679000    18.20073000   -17.80000000
   57.64680000    18.20051000   -17.10000000
   57.64680000    18.20029000   -16.40000000
   57.64681000    18.20007000   -16.90000000
   57.64682000    18.19985000   -16.30000000
   57.64061000    18.19749000    -5.50000000
   57.63918000    18.19864000    -6.20000000
   57.63774000    18.19980000    -6.70000000
   57.63631000    18.20095000    -6.80000000
   57.63488000    18.20211000    -6.10000000
   57.63345000    18.20326000    -6.30000000
   57.63202000    18.20442000    -6.70000000
   57.63056000    18.20569000    -6.30000000
   57.62909000    18.20696000    -5.70000000
   57.62763000    18.20823000    -5.80000000
   57.62617000    18.20951000    -5.10000000
   57.62471000    18.21078000    -4.50000000
   57.62324000    18.21205000    -4.30000000
   57.62178000    18.21333000    -3.50000000
   57.62032000    18.21460000    -2.80000000
   57.61885000    18.21587000    -1.80000000
   57.61739000    18.21715000    -1.00000000
   57.61603000    18.21842000    -3.60000000
   57.61467000    18.21969000    -7.30000000
   57.61331000    18.22096000    -8.30000000
   57.61195000    18.22224000    -7.60000000
   57.61059000    18.22351000    -7.90000000
   57.60923000    18.22478000    -8.80000000
   57.60787000    18.22606000    -9.60000000
   57.60651000    18.22733000   -10.20000000
   57.60515000    18.22860000   -10.00000000
   57.60379000    18.22987000    -8.30000000
   57.60263000    18.23104000    -7.20000000
   57.60148000    18.23221000    -8.50000000
   57.60052000    18.23313000   -11.20000000
   57.59957000    18.23405000   -13.40000000
   57.59883000    18.23464000   -15.40000000
   57.59809000    18.23522000   -16.30000000
   57.59735000    18.23581000   -14.90000000
   57.59661000    18.23639000   -14.80000000
   57.59588000    18.23698000   -13.90000000
   57.59514000    18.23756000   -13.00000000
   57.59454000    18.23801000   -11.80000000
   57.59395000    18.23844000    -9.40000000
   57.59362000    18.23853000    -6.30000000
   57.59329000    18.23861000    -2.90000000
   57.59326000    18.23846000     0.50000000
   57.59324000    18.23831000     2.10000000
   57.59337000    18.23809000     4.50000000
   57.59350000    18.23787000     4.50000000
   57.59364000    18.23765000     5.70000000
   57.59377000    18.23743000     5.60000000
   57.59390000    18.23721000     5.90000000
   57.59403000    18.23699000     4.70000000
   57.59416000    18.23677000     4.50000000
   57.59429000    18.23655000     4.40000000
   57.59443000    18.23633000     4.60000000
   57.59456000    18.23611000     4.80000000
   57.59468000    18.23592000     4.40000000
   57.59481000    18.23573000     3.40000000
   57.59494000    18.23555000     3.60000000
   57.59507000    18.23537000     3.80000000
   57.59520000    18.23519000     4.10000000
   57.59533000    18.23501000     3.90000000
   57.59549000    18.23483000     5.10000000
   57.59564000    18.23465000     4.10000000
   57.59579000    18.23447000     4.60000000
   57.59595000    18.23430000     4.00000000
   57.59611000    18.23414000     4.20000000
   57.59627000    18.23398000     4.70000000
   57.59643000    18.23385000     5.20000000
   57.59660000    18.23373000     5.10000000
   57.59677000    18.23360000     4.20000000
   57.59693000    18.23347000     4.40000000
   57.59708000    18.23334000     4.50000000
   57.59723000    18.23321000     4.10000000
   57.59738000    18.23307000     4.70000000
   57.59753000    18.23294000     4.10000000
   57.59768000    18.23280000     4.20000000
   57.59783000    18.23267000     4.70000000
   57.59798000    18.23254000     4.60000000
   57.59813000    18.23240000     3.60000000
   57.59828000    18.23227000     3.70000000
   57.59843000    18.23213000     4.60000000
   57.59858000    18.23201000     4.00000000
   57.59873000    18.23188000     4.40000000
   57.59886000    18.23177000     3.90000000
   57.59900000    18.23166000     3.60000000
   57.59913000    18.23156000     3.50000000
   57.59925000    18.23147000     3.90000000
   57.59938000    18.23139000     3.90000000
   57.59951000    18.23131000     3.70000000
   57.59964000    18.23122000     3.80000000
   57.59977000    18.23112000     3.50000000
   57.59989000    18.23102000     2.90000000
   57.60002000    18.23091000     3.00000000
   57.60013000    18.23078000     3.20000000
   57.60025000    18.23066000     2.30000000
   57.60037000    18.23053000     3.60000000
   57.59611000    18.23185000     4.20000000
   57.59626000    18.23188000     4.70000000
   57.59644000    18.23198000     5.30000000
   57.59662000    18.23207000     5.20000000
   57.59680000    18.23220000     5.80000000
   57.59698000    18.23233000     6.10000000
   57.59713000    18.23246000     6.10000000
   57.59729000    18.23258000     6.20000000
   57.59746000    18.23267000     7.60000000
   57.59764000    18.23276000     8.10000000
   57.59782000    18.23285000     7.70000000
   57.59799000    18.23294000     7.30000000
   57.59819000    18.23308000     7.50000000
   57.59838000    18.23322000     7.80000000
   57.59857000    18.23335000     8.10000000
   57.59877000    18.23349000     7.40000000
   57.59894000    18.23357000     7.30000000
   57.59912000    18.23365000     7.30000000
   57.59926000    18.23366000     6.10000000
   57.59939000    18.23367000     6.70000000
   57.59951000    18.23367000     6.20000000
   57.59963000    18.23366000     6.30000000
   57.59976000    18.23370000     6.30000000
   57.59989000    18.23373000     6.40000000
   57.60001000    18.23378000     6.30000000
   57.60013000    18.23382000     6.80000000
   57.60025000    18.23387000     6.30000000
   57.60037000    18.23392000     6.80000000
   57.60051000    18.23396000     6.70000000
   57.60065000    18.23400000     7.70000000
   57.60079000    18.23400000     7.80000000
   57.60092000    18.23400000     7.80000000
   57.60102000    18.23399000     7.60000000
   57.60113000    18.23398000     6.80000000
   57.60128000    18.23405000     7.50000000
   57.60144000    18.23413000     7.50000000
   57.60159000    18.23420000     7.80000000
   57.60175000    18.23428000     8.10000000
   57.60192000    18.23434000     7.10000000
   57.60209000    18.23440000     7.30000000
   57.60219000    18.23447000     6.90000000
   57.60228000    18.23454000     7.60000000
   57.60240000    18.23459000     7.30000000
   57.60252000    18.23464000     6.90000000
   57.60267000    18.23469000     7.00000000
   57.60282000    18.23474000     6.40000000
   57.60297000    18.23484000     7.10000000
   57.60313000    18.23494000     6.90000000
   57.60330000    18.23502000     6.80000000
   57.60346000    18.23510000     7.00000000
   57.60363000    18.23514000     7.30000000
   57.60380000    18.23519000     6.70000000
   57.60394000    18.23530000     6.60000000
   57.60407000    18.23541000     6.80000000
   57.60425000    18.23553000     6.50000000
   57.60444000    18.23565000     6.90000000
   57.60465000    18.23576000     7.30000000
   57.60485000    18.23587000     7.80000000
   57.60505000    18.23597000     7.40000000
   57.60526000    18.23606000     7.80000000
   57.60545000    18.23620000     7.80000000
   57.60565000    18.23633000     8.10000000
   57.60584000    18.23647000     8.60000000
   57.60603000    18.23661000     8.50000000
   57.60623000    18.23674000     8.90000000
   57.60642000    18.23688000     8.90000000
   57.60662000    18.23701000     7.20000000
   57.60681000    18.23715000     7.30000000
   57.60701000    18.23728000     6.90000000
   57.60720000    18.23742000     7.80000000
   57.60737000    18.23755000     7.90000000
   57.60754000    18.23769000     6.80000000
   57.60769000    18.23787000     6.40000000
   57.60785000    18.23805000     5.60000000
   57.60798000    18.23826000     5.40000000
   57.60811000    18.23847000     5.40000000
   57.60827000    18.23865000     6.40000000
   57.60844000    18.23884000     7.70000000
   57.60866000    18.23902000     8.00000000
   57.60888000    18.23920000     8.30000000
   57.60906000    18.23940000     8.40000000
   57.60924000    18.23961000     8.60000000
   57.60943000    18.23981000     8.60000000
   57.60961000    18.24002000     8.20000000
   57.60986000    18.24021000     7.90000000
   57.61011000    18.24040000     8.20000000
   57.61036000    18.24059000     8.10000000
   57.61062000    18.24078000     7.70000000
   57.61081000    18.24095000     7.70000000
   57.61100000    18.24113000     7.60000000
   57.61119000    18.24131000     7.10000000
   57.61138000    18.24148000     6.90000000
   57.61150000    18.24165000     6.80000000
   57.61162000    18.24181000     7.10000000
   57.61182000    18.24195000     7.80000000
   57.61201000    18.24209000     7.30000000
   57.61222000    18.24223000     7.40000000
   57.61243000    18.24236000     7.30000000
   57.61264000    18.24253000     7.10000000
   57.61284000    18.24270000     7.30000000
   57.61305000    18.24287000     7.70000000
   57.61325000    18.24304000     7.20000000
   57.61346000    18.24320000     7.20000000
   57.61366000    18.24337000     6.80000000
   57.61387000    18.24354000     6.50000000
   57.61408000    18.24371000     7.70000000
   57.61428000    18.24388000     7.80000000
   57.61449000    18.24405000     8.40000000
   57.61470000    18.24424000     8.30000000
   57.61492000    18.24442000     9.00000000
   57.61042000    18.25242000    27.90000000
   57.60884000    18.25376000    26.80000000
   57.60727000    18.25509000    27.60000000
   57.60569000    18.25642000    27.80000000
   57.60412000    18.25776000    28.50000000
   57.60255000    18.25909000    29.60000000
   57.60097000    18.26042000    30.40000000
   57.59940000    18.26176000    31.10000000
   57.59783000    18.26309000    32.20000000
   57.59620000    18.26442000    32.30000000
   57.59458000    18.26576000    32.20000000
   57.59296000    18.26709000    32.70000000
   57.59133000    18.26842000    34.00000000
   57.58971000    18.26976000    34.80000000
   57.58808000    18.27109000    35.40000000
   57.58646000    18.27242000    35.50000000
   57.58483000    18.27376000    36.40000000
   57.58321000    18.27509000    36.10000000
   57.58158000    18.27642000    36.90000000
   57.57998000    18.27775000    36.20000000
   57.57837000    18.27908000    35.50000000
   57.57677000    18.28040000    35.10000000
   57.57516000    18.28173000    35.70000000
   57.57356000    18.28306000    35.10000000
   57.57195000    18.28438000    33.90000000
   57.57035000    18.28571000    33.40000000
   57.56874000    18.28703000    32.90000000
   57.56714000    18.28836000    33.60000000
   57.56553000    18.28969000    33.10000000
   57.56393000    18.29103000    34.10000000
   57.56232000    18.29238000    34.80000000
   57.56072000    18.29373000    33.80000000
   57.55911000    18.29507000    33.60000000
   57.55751000    18.29642000    33.40000000
   57.55590000    18.29777000    33.70000000
   57.55430000    18.29911000    33.80000000
   57.55269000    18.30046000    34.40000000
   57.55109000    18.30181000    34.20000000
   57.54948000    18.30315000    34.30000000
   57.54790000    18.30450000    34.20000000
   57.54633000    18.30584000    34.30000000
   57.54476000    18.30718000    33.60000000
   57.54318000    18.30852000    33.40000000
   57.54161000    18.30987000    33.80000000
   57.54004000    18.31121000    33.10000000
   57.53846000    18.31255000    32.60000000
   57.53689000    18.31390000    32.90000000
   57.53531000    18.31524000    31.60000000
   57.53374000    18.31658000    30.90000000
   57.53218000    18.31791000    30.80000000
   57.53061000    18.31925000    29.90000000
   57.52905000    18.32058000    30.70000000
   57.52749000    18.32191000    29.80000000
   57.52592000    18.32324000    30.70000000
   57.52436000    18.32457000    28.60000000
   57.50733000    18.33807000    28.80000000
   57.50751000    18.33810000    29.10000000
   57.50770000    18.33813000    28.60000000
   57.50789000    18.33823000    28.60000000
   57.50808000    18.33832000    28.80000000
   57.50824000    18.33835000    28.60000000
   57.50839000    18.33837000    28.80000000
   57.50855000    18.33840000    28.50000000
   57.50871000    18.33842000    28.40000000
   57.50886000    18.33845000    27.70000000
   57.50902000    18.33847000    27.60000000
   57.50918000    18.33846000    27.40000000
   57.50933000    18.33845000    27.80000000
   57.50954000    18.33848000    28.80000000
   57.50975000    18.33851000    29.40000000
   57.51003000    18.33845000    29.80000000
   57.51031000    18.33838000    30.10000000
   57.51059000    18.33832000    30.00000000
   57.51086000    18.33825000    29.40000000
   57.51105000    18.33831000    28.10000000
   57.51123000    18.33838000    27.80000000
   57.51144000    18.33841000    26.80000000
   57.51166000    18.33844000    25.90000000
   57.51168000    18.33874000    25.80000000
   57.51169000    18.33903000    25.80000000
   57.51176000    18.33930000    25.70000000
   57.51183000    18.33956000    26.90000000
   57.51205000    18.33966000    28.40000000
   57.51227000    18.33977000    29.20000000
   57.51249000    18.33988000    29.90000000
   57.51271000    18.33998000    29.40000000
   57.51294000    18.34016000    28.60000000
   57.51318000    18.34035000    28.40000000
   57.51343000    18.34050000    29.20000000
   57.51367000    18.34065000    29.30000000
   57.51388000    18.34082000    29.80000000
   57.51408000    18.34099000    29.30000000
   57.51431000    18.34112000    29.90000000
   57.51454000    18.34125000    31.00000000
   57.51481000    18.34127000    32.40000000
   57.51509000    18.34129000    33.40000000
   57.51559000    18.34112000    33.10000000
   57.51609000    18.34095000    32.00000000
   57.51633000    18.34104000    31.80000000
   57.51656000    18.34114000    31.20000000
   57.55908000    18.32978000    36.00000000
   57.55928000    18.32982000    35.90000000
   57.55945000    18.32982000    35.60000000
   57.55961000    18.32983000    35.40000000
   57.55974000    18.32980000    35.80000000
   57.55987000    18.32978000    36.00000000
   57.56000000    18.32975000    34.90000000
   57.56013000    18.32973000    35.70000000
   57.56028000    18.32971000    36.40000000
   57.56043000    18.32970000    35.40000000
   57.56060000    18.32969000    35.80000000
   57.56078000    18.32969000    36.60000000
   57.56096000    18.32966000    36.40000000
   57.56113000    18.32963000    36.60000000
   57.56129000    18.32957000    36.70000000
   57.56144000    18.32950000    36.40000000
   57.56157000    18.32942000    37.30000000
   57.56171000    18.32933000    36.40000000
   57.56184000    18.32924000    36.30000000
   57.56197000    18.32916000    36.60000000
   57.56211000    18.32909000    35.70000000
   57.56224000    18.32902000    35.60000000
   57.56238000    18.32897000    36.30000000
   57.56252000    18.32891000    36.40000000
   57.56264000    18.32884000    36.60000000
   57.56276000    18.32876000    36.20000000
   57.56287000    18.32866000    36.20000000
   57.56297000    18.32856000    36.10000000
   57.56307000    18.32845000    36.60000000
   57.56317000    18.32834000    36.40000000
   57.56328000    18.32825000    37.10000000
   57.56340000    18.32817000    36.40000000
   57.56350000    18.32811000    36.40000000
   57.56361000    18.32805000    36.80000000
   57.56371000    18.32800000    36.10000000
   57.56380000    18.32794000    35.60000000
   57.56389000    18.32787000    35.10000000
   57.56397000    18.32780000    34.40000000
   57.56406000    18.32773000    34.20000000
   57.56414000    18.32766000    34.30000000
   57.56421000    18.32757000    34.40000000
   57.56429000    18.32749000    34.80000000
   57.56437000    18.32738000    34.90000000
   57.56444000    18.32728000    35.30000000
   57.56453000    18.32718000    36.70000000
   57.56462000    18.32708000    37.10000000
   57.56475000    18.32699000    37.80000000
   57.56487000    18.32689000    38.90000000
   57.56499000    18.32679000    39.20000000
   57.56512000    18.32670000    38.70000000
   57.56525000    18.32657000    38.30000000
   57.56539000    18.32644000    39.20000000
   57.56550000    18.32629000    39.20000000
   57.56561000    18.32614000    38.30000000
   57.56568000    18.32595000    37.30000000
   57.56575000    18.32576000    37.20000000
   57.56577000    18.32552000    36.80000000
   57.56580000    18.32527000    36.40000000
   57.56580000    18.32493000    35.50000000
   57.56581000    18.32458000    35.70000000
   57.56582000    18.32424000    36.10000000
   57.56582000    18.32389000    36.20000000
   57.56583000    18.32355000    36.30000000
   57.56583000    18.32320000    36.30000000
   57.56582000    18.32277000    36.40000000
   57.56581000    18.32234000    36.60000000
   57.56581000    18.32199000    35.60000000
   57.56582000    18.32163000    36.40000000
   57.56583000    18.32127000    36.40000000
   57.56583000    18.32091000    35.90000000
   57.56581000    18.32055000    35.80000000
   57.56579000    18.32019000    35.50000000
   57.56577000    18.31983000    35.60000000
   57.56576000    18.31947000    35.70000000
   57.56574000    18.31911000    34.70000000
   57.56572000    18.31875000    34.10000000
   57.56570000    18.31839000    34.50000000
   57.56568000    18.31803000    35.40000000
   57.55893000    18.30269000    33.00000000
   57.55759000    18.30053000    33.30000000
   57.55625000    18.29837000    31.50000000
   57.55491000    18.29622000    30.40000000
   57.55357000    18.29406000    29.90000000
   57.55223000    18.29191000    29.70000000
   57.55089000    18.28975000    29.80000000
   57.54954000    18.28759000    27.80000000
   57.54820000    18.28544000    28.10000000
   57.54686000    18.28328000    28.10000000
   57.54552000    18.28112000    27.40000000
   57.54420000    18.27892000    27.90000000
   57.54288000    18.27671000    28.00000000
   57.54156000    18.27450000    28.10000000
   57.54024000    18.27230000    27.50000000
   57.53891000    18.27009000    27.80000000
   57.53759000    18.26788000    24.80000000
   57.53627000    18.26567000    25.90000000
   57.53495000    18.26347000    24.60000000
   57.53363000    18.26126000    25.00000000
   57.53230000    18.25905000    24.80000000
   57.53102000    18.25679000    25.20000000
   57.52974000    18.25452000    24.40000000
   57.52847000    18.25226000    23.30000000
   57.52719000    18.24999000    24.20000000
   57.52591000    18.24773000    24.40000000
   57.52463000    18.24546000    24.40000000
   57.52335000    18.24319000    24.60000000
   57.52207000    18.24093000    24.30000000
   57.52079000    18.23866000    23.10000000
   57.51951000    18.23640000    23.80000000
   57.51829000    18.23412000    23.60000000
   57.51707000    18.23185000    23.70000000
   57.51584000    18.22958000    24.80000000
   57.51462000    18.22731000    26.40000000
   57.51339000    18.22503000    27.30000000
   57.51217000    18.22276000    28.10000000
   57.51094000    18.22049000    29.60000000
   57.50972000    18.21821000    27.60000000
   57.50849000    18.21594000    28.40000000
   57.50727000    18.21367000    28.70000000
   57.50604000    18.21145000    29.00000000
   57.50481000    18.20923000    29.40000000
   57.50358000    18.20701000    29.00000000
   57.50235000    18.20479000    26.10000000
   57.50096000    18.20265000    26.10000000
   57.49955000    18.20052000    24.80000000
   57.49815000    18.19839000    24.00000000
   57.49675000    18.19626000    22.90000000
   57.49535000    18.19412000    22.30000000
   57.49395000    18.19199000    21.80000000
   57.49255000    18.18986000    22.30000000
   57.49115000    18.18773000    21.80000000
   57.48975000    18.18559000    21.10000000
   57.48835000    18.18346000    20.40000000
   57.48697000    18.18134000    21.00000000
   57.48559000    18.17921000    20.10000000
