  110.80820000   -15.37910000   -11.60000000
  110.80100000   -15.40470000   -11.70000000
  110.79340000   -15.43050000   -14.10000000
  110.78560000   -15.45630000   -13.60000000
  110.77770000   -15.48210000   -12.80000000
  110.76990000   -15.50790000   -11.90000000
  110.76210000   -15.53370000   -15.20000000
  110.75420000   -15.55940000   -13.40000000
  110.74640000   -15.58520000   -11.60000000
  110.73850000   -15.61100000    -9.80000000
  110.73070000   -15.63680000    -8.90000000
  110.72280000   -15.66260000   -10.20000000
  110.71500000   -15.68830000   -10.40000000
  110.69050000   -15.73180000   -14.30000000
  110.67830000   -15.75360000   -15.40000000
  110.66610000   -15.77540000   -13.40000000
  110.65380000   -15.79710000   -12.40000000
  110.64160000   -15.81890000   -12.40000000
  110.62940000   -15.84060000   -13.40000000
  110.61710000   -15.86240000   -12.40000000
  110.60550000   -15.88420000    -8.90000000
  110.59430000   -15.90720000    -8.90000000
  110.58310000   -15.93020000    -8.90000000
  110.57190000   -15.95320000   -10.10000000
  110.56070000   -15.97610000   -10.20000000
  110.54950000   -15.99910000   -11.30000000
  110.53760000   -16.02180000   -14.40000000
  110.52510000   -16.04420000   -14.40000000
  110.51270000   -16.06650000   -11.40000000
  110.45160000   -16.10640000   -12.30000000
  110.44370000   -16.11920000    -9.90000000
  110.43570000   -16.13200000    -8.40000000
  110.42770000   -16.14480000    -9.20000000
  110.41980000   -16.15760000    -7.80000000
  110.41180000   -16.17040000    -7.40000000
  110.40380000   -16.18310000    -8.00000000
  110.39590000   -16.19590000    -7.60000000
  110.38790000   -16.20870000    -7.20000000
  110.37990000   -16.22150000    -7.80000000
  110.37200000   -16.23430000    -7.50000000
  110.36400000   -16.24710000    -7.10000000
  110.35600000   -16.25990000    -6.70000000
  110.34810000   -16.27270000    -5.30000000
  110.34010000   -16.28550000    -5.90000000
  110.33210000   -16.29830000    -6.50000000
  110.32000000   -16.32000000    -7.80000000
  110.30790000   -16.34160000    -7.80000000
  110.29580000   -16.36330000    -7.90000000
  110.28370000   -16.38500000    -5.90000000
  110.27170000   -16.40670000    -6.00000000
  110.26040000   -16.42740000    -4.70000000
  110.24920000   -16.44810000    -4.80000000
  110.23800000   -16.46880000    -5.80000000
  110.22680000   -16.48950000    -5.80000000
  110.21560000   -16.51020000    -6.80000000
  110.20440000   -16.53090000    -7.80000000
  110.19320000   -16.55160000    -8.70000000
  110.18200000   -16.57230000   -10.80000000
  110.17080000   -16.59300000   -11.90000000
  110.15960000   -16.61370000   -13.90000000
  110.14930000   -16.63380000   -12.70000000
  110.13940000   -16.65600000   -13.80000000
  110.12940000   -16.67810000   -13.90000000
  110.11940000   -16.70020000   -13.90000000
  110.10940000   -16.72230000   -14.10000000
  110.09940000   -16.74440000   -14.20000000
  110.08950000   -16.76660000   -13.30000000
  110.07950000   -16.78870000   -14.40000000
  110.06950000   -16.81080000   -14.40000000
  110.05950000   -16.83290000   -15.60000000
  110.04950000   -16.85500000   -15.70000000
  110.03960000   -16.87720000   -15.80000000
  110.02960000   -16.89930000   -14.90000000
  110.01960000   -16.92140000   -14.90000000
  110.00960000   -16.94350000   -15.10000000
  109.99960000   -16.96560000   -15.20000000
  109.98980000   -16.98780000   -14.40000000
  109.98050000   -17.00990000   -14.60000000
  109.97110000   -17.03250000   -15.20000000
  109.96170000   -17.05500000   -14.30000000
  109.95230000   -17.07750000   -13.30000000
  109.94290000   -17.10000000   -12.40000000
  109.93350000   -17.12260000   -12.60000000
  109.92410000   -17.14510000   -11.70000000
  109.91470000   -17.16760000   -12.90000000
  109.90530000   -17.19010000   -12.90000000
  109.89590000   -17.21260000   -14.10000000
  109.88650000   -17.23510000   -12.30000000
  109.87710000   -17.25770000   -10.40000000
  109.86580000   -17.27950000   -14.90000000
  109.85340000   -17.30100000   -15.10000000
  109.84090000   -17.32240000   -14.20000000
  109.82850000   -17.34380000   -14.30000000
  109.81600000   -17.36530000   -13.40000000
  109.80360000   -17.38670000   -13.40000000
  109.79110000   -17.40820000   -11.40000000
  109.77830000   -17.43030000   -14.40000000
  109.76550000   -17.45240000   -14.60000000
  109.75280000   -17.47450000   -13.70000000
  109.74000000   -17.49670000    -7.80000000
  109.72830000   -17.51840000    -6.20000000
  109.71670000   -17.54010000    -4.30000000
  109.70500000   -17.56180000    -3.30000000
  109.69330000   -17.58360000    -3.50000000
  109.68160000   -17.60530000    -3.50000000
  109.67000000   -17.62700000    -4.80000000
  109.65830000   -17.64880000    -4.90000000
  109.64660000   -17.67050000    -5.00000000
  109.63500000   -17.69220000    -4.10000000
  109.62330000   -17.71390000    -4.30000000
  109.61160000   -17.73570000    -3.30000000
  109.60000000   -17.75740000    -1.40000000
  109.58830000   -17.77910000    -2.60000000
  109.57660000   -17.80080000    -2.80000000
  109.56540000   -17.82170000    -1.80000000
  109.55410000   -17.84250000    -2.80000000
  109.54280000   -17.86330000    -1.90000000
  109.53060000   -17.88390000    -6.00000000
  109.51770000   -17.90440000    -5.00000000
  109.50490000   -17.92490000    -6.10000000
  109.49200000   -17.94530000    -7.20000000
  109.47910000   -17.96580000    -8.30000000
  109.46620000   -17.98630000    -9.30000000
  109.45340000   -18.00670000   -10.40000000
  109.44050000   -18.02720000   -10.40000000
  109.42760000   -18.04770000   -11.60000000
  109.41480000   -18.06810000   -12.70000000
  109.40190000   -18.08860000   -13.80000000
  109.38900000   -18.10910000   -13.90000000
  109.37610000   -18.12950000   -13.90000000
  109.36330000   -18.15000000   -13.90000000
  109.35040000   -18.17050000   -14.10000000
  109.33770000   -18.19060000   -16.80000000
  109.32490000   -18.21080000   -18.80000000
  109.31220000   -18.23090000   -20.80000000
  109.29940000   -18.25100000   -19.90000000
  109.28670000   -18.27120000   -21.00000000
  109.27400000   -18.29130000   -22.10000000
  109.21160000   -18.32190000   -19.30000000
  109.20150000   -18.34210000   -19.30000000
  109.19140000   -18.36220000   -19.40000000
  109.18130000   -18.38240000   -19.50000000
  109.17120000   -18.40260000   -19.60000000
  109.16110000   -18.42280000   -19.80000000
  109.15100000   -18.44300000   -18.80000000
  109.14070000   -18.46300000   -20.10000000
  109.13010000   -18.48290000   -20.30000000
  109.11940000   -18.50290000   -20.30000000
  109.10870000   -18.52290000   -20.40000000
  109.09810000   -18.54280000   -20.40000000
  109.08740000   -18.56280000   -19.50000000
  109.07680000   -18.58280000   -17.60000000
  109.06610000   -18.60270000   -18.70000000
  109.05540000   -18.62270000   -19.80000000
  109.04480000   -18.64270000   -20.90000000
  109.03410000   -18.66260000   -20.90000000
  109.02350000   -18.68260000   -23.00000000
  109.01680000   -18.70170000   -21.40000000
  109.01010000   -18.72090000   -21.50000000
  109.00340000   -18.74000000   -21.50000000
  108.99670000   -18.75920000   -21.60000000
  108.98480000   -18.79680000   -22.90000000
  108.97970000   -18.81530000   -22.90000000
  108.97450000   -18.83380000   -21.90000000
  108.96940000   -18.85230000   -22.90000000
  108.94880000   -18.92620000   -15.10000000
  108.92570000   -18.99910000   -15.10000000
  108.91800000   -19.01650000   -16.00000000
  108.91040000   -19.03380000   -13.90000000
  108.90280000   -19.05120000   -12.90000000
  108.89510000   -19.06860000   -10.80000000
  108.88750000   -19.08590000    -7.80000000
  108.87990000   -19.10330000    -6.80000000
  108.87230000   -19.12070000    -5.70000000
  108.86460000   -19.13800000    -4.70000000
  108.85700000   -19.15540000    -5.70000000
  108.84940000   -19.17280000    -5.60000000
  108.84180000   -19.19010000    -7.60000000
  108.83410000   -19.20750000    -8.60000000
  108.82650000   -19.22490000    -8.40000000
  108.81790000   -19.24350000   -12.60000000
  108.80900000   -19.26250000   -12.70000000
  108.80010000   -19.28140000   -12.70000000
  108.79110000   -19.30040000   -12.80000000
  108.78220000   -19.31940000   -12.90000000
  108.77330000   -19.33830000   -11.90000000
  108.76380000   -19.35760000   -14.40000000
  108.73520000   -19.41560000    -9.70000000
  108.72570000   -19.43490000    -9.80000000
  108.71620000   -19.45420000    -8.90000000
  108.70670000   -19.47350000    -8.90000000
  108.69710000   -19.49280000    -8.90000000
  108.68760000   -19.51210000    -8.10000000
  108.67810000   -19.53150000   -11.20000000
  108.64060000   -19.61070000    -7.50000000
  108.63160000   -19.63140000    -3.60000000
  108.62260000   -19.65210000    -3.80000000
  108.61350000   -19.67280000    -3.00000000
  108.60440000   -19.69360000    -3.10000000
  102.26070000   -20.05750000   -26.30000000
  102.23260000   -20.05970000   -26.50000000
  102.20440000   -20.06190000   -25.60000000
  102.17630000   -20.06410000   -22.80000000
  102.14870000   -20.06630000   -18.40000000
  102.12150000   -20.06850000   -15.70000000
  102.09440000   -20.07060000   -12.80000000
  102.06720000   -20.07280000    -9.90000000
  102.04010000   -20.07490000    -6.00000000
  102.01290000   -20.07680000    -6.20000000
  102.02170000   -20.00760000    -1.80000000
  102.03120000   -19.98580000    -2.50000000
  102.04080000   -19.96400000    -5.40000000
  102.05040000   -19.94220000    -7.10000000
  102.05990000   -19.92040000    -9.90000000
  102.08860000   -19.85500000   -22.00000000
  102.09820000   -19.83320000   -22.80000000
  102.10770000   -19.81140000   -24.50000000
  102.11730000   -19.78960000   -24.30000000
  102.12680000   -19.76780000   -25.00000000
  102.13640000   -19.74600000   -24.80000000
  102.14500000   -19.72510000   -27.40000000
  102.15340000   -19.70440000   -28.30000000
  102.16170000   -19.68380000   -28.10000000
  102.17000000   -19.66310000   -28.90000000
  102.17860000   -19.64210000   -28.30000000
  102.18710000   -19.62110000   -27.10000000
  102.19560000   -19.60010000   -24.90000000
  102.20410000   -19.57910000   -23.80000000
  102.21270000   -19.55810000   -18.50000000
  102.22120000   -19.53710000   -16.30000000
  102.22970000   -19.51610000   -16.10000000
  102.23820000   -19.49510000   -16.90000000
  102.24710000   -19.47360000   -15.40000000
  102.25620000   -19.45180000   -15.20000000
  102.26530000   -19.43010000   -14.90000000
  102.27430000   -19.40830000   -13.80000000
  102.28340000   -19.38660000   -13.40000000
  102.29250000   -19.36480000   -12.30000000
  102.30160000   -19.34300000   -12.10000000
  102.31060000   -19.32130000   -11.90000000
  102.32180000   -19.30120000   -13.60000000
  102.33510000   -19.28290000   -16.50000000
  102.34830000   -19.26460000   -19.50000000
  102.36160000   -19.24620000   -20.50000000
  102.37490000   -19.22790000   -19.40000000
  102.38820000   -19.20960000   -18.40000000
  102.40140000   -19.19130000   -18.40000000
  102.41470000   -19.17290000   -18.40000000
  102.42800000   -19.15460000   -17.40000000
  102.44120000   -19.13630000   -17.30000000
  102.45450000   -19.11800000   -17.30000000
  102.46780000   -19.09960000   -16.30000000
  102.48100000   -19.08130000   -17.30000000
  102.49460000   -19.06330000   -17.60000000
  102.50940000   -19.04630000   -17.80000000
  102.52410000   -19.02940000   -17.80000000
  102.53890000   -19.01240000   -16.80000000
  102.55370000   -18.99540000   -19.90000000
  102.56850000   -18.97850000   -17.90000000
  102.58320000   -18.96150000   -16.00000000
  102.60030000   -18.94200000   -12.40000000
  102.61740000   -18.92240000   -13.30000000
  102.63440000   -18.90290000   -12.30000000
  102.65150000   -18.88330000   -13.20000000
  102.66860000   -18.86370000   -13.10000000
  102.68560000   -18.84420000   -13.90000000
  102.70270000   -18.82460000   -15.90000000
  102.71980000   -18.80510000   -14.90000000
  102.73740000   -18.78510000   -10.40000000
  102.75580000   -18.76470000   -11.30000000
  102.77430000   -18.74420000   -10.10000000
  102.79270000   -18.72380000    -9.90000000
  102.81120000   -18.70330000    -7.90000000
  102.75710000   -18.70740000   -21.90000000
  102.73010000   -18.71520000   -23.30000000
  102.70300000   -18.72290000   -24.80000000
  102.67600000   -18.73060000   -25.30000000
  102.64900000   -18.73830000   -23.60000000
  102.62190000   -18.74600000   -23.00000000
  102.59490000   -18.75370000   -22.40000000
  102.56780000   -18.76140000   -21.80000000
  102.54080000   -18.76910000   -22.30000000
  102.51370000   -18.77680000   -20.80000000
  102.48660000   -18.78330000   -22.30000000
  102.45950000   -18.78950000   -22.50000000
  102.43240000   -18.79580000   -20.80000000
  102.40530000   -18.80200000   -21.30000000
  102.37820000   -18.80820000   -21.50000000
  102.35070000   -18.81460000   -21.80000000
  102.32320000   -18.82090000   -22.30000000
  102.29570000   -18.82720000   -22.50000000
  102.26810000   -18.83350000   -23.90000000
  102.24060000   -18.83980000   -24.30000000
  102.21310000   -18.84620000   -24.50000000
  102.18560000   -18.85250000   -23.90000000
  102.15810000   -18.85880000   -22.30000000
  102.13060000   -18.86510000   -20.60000000
  102.10310000   -18.87140000   -20.90000000
  102.07550000   -18.87780000   -18.30000000
  102.04800000   -18.88410000   -17.60000000
  102.02050000   -18.89040000   -17.00000000
  101.99160000   -18.89660000   -18.60000000
  101.96230000   -18.90280000   -17.90000000
  101.93300000   -18.90900000   -17.30000000
  101.90370000   -18.91520000   -17.60000000
  101.87440000   -18.92130000   -20.90000000
  101.84500000   -18.92750000   -22.30000000
  101.81630000   -18.93430000   -20.50000000
  101.78780000   -18.94160000   -22.90000000
  101.75940000   -18.94880000   -23.30000000
  101.73150000   -18.91640000   -16.50000000
  101.72210000   -18.88980000   -16.00000000
  101.71280000   -18.86330000   -14.70000000
  101.70350000   -18.83670000   -14.20000000
  101.69420000   -18.81020000   -13.80000000
  101.68490000   -18.78370000   -15.30000000
  101.67560000   -18.75710000    -9.80000000
  101.66620000   -18.73040000    -8.40000000
  101.65690000   -18.70370000    -8.10000000
  101.64810000   -18.67680000    -5.80000000
  101.63950000   -18.65000000    -9.40000000
  101.63090000   -18.62310000   -11.90000000
  101.62230000   -18.59630000   -11.40000000
  101.61370000   -18.56940000    -9.90000000
  101.60510000   -18.54260000    -8.40000000
  101.59650000   -18.51570000    -6.10000000
  101.58790000   -18.48890000    -5.60000000
  101.57930000   -18.46200000    -6.20000000
  101.57070000   -18.43520000    -6.70000000
  101.56220000   -18.40860000    -8.10000000
  101.55370000   -18.38210000    -6.70000000
  101.54520000   -18.35550000    -7.30000000
  101.53670000   -18.32900000   -10.90000000
  101.52800000   -18.30270000   -16.30000000
  101.51920000   -18.27670000   -16.90000000
  101.51030000   -18.25060000   -21.50000000
  101.50140000   -18.22460000   -25.10000000
  101.49260000   -18.19850000   -29.80000000
  101.48370000   -18.17250000   -32.50000000
  101.47460000   -18.14640000   -36.00000000
  101.46410000   -18.12040000   -34.60000000
  101.45350000   -18.09430000   -34.30000000
  101.44300000   -18.06820000   -34.00000000
  101.43250000   -18.04210000   -33.50000000
  101.45530000   -17.99990000   -38.30000000
  101.47360000   -18.00980000   -37.80000000
  101.49190000   -18.01970000   -39.30000000
  101.51020000   -18.02950000   -39.80000000
  101.52850000   -18.03940000   -40.30000000
  101.54680000   -18.04930000   -40.80000000
  101.56510000   -18.05910000   -37.30000000
  101.58350000   -18.06900000   -35.80000000
  101.60180000   -18.07890000   -32.30000000
  101.62010000   -18.08870000   -28.80000000
  101.63840000   -18.09860000   -28.40000000
  101.65670000   -18.10850000   -26.90000000
  101.67500000   -18.11830000   -26.40000000
  101.69550000   -18.12850000   -27.80000000
  101.71600000   -18.13860000   -34.30000000
  101.73640000   -18.14870000   -36.80000000
  101.75690000   -18.15890000   -41.30000000
  101.77740000   -18.16900000   -42.80000000
  101.79790000   -18.17910000   -41.50000000
  101.81850000   -18.18930000   -38.00000000
  101.83880000   -18.19900000   -33.00000000
  101.85910000   -18.20840000   -27.50000000
  101.87940000   -18.21780000   -23.00000000
  101.89970000   -18.22720000   -19.40000000
  101.92000000   -18.23670000   -17.90000000
  101.94030000   -18.24610000   -16.40000000
  101.96060000   -18.25550000   -14.90000000
  101.98090000   -18.26490000   -15.40000000
  102.00110000   -18.27430000   -15.90000000
  102.02020000   -18.28420000   -26.00000000
  102.03740000   -18.29460000   -29.60000000
  102.05460000   -18.30510000   -32.10000000
  102.07190000   -18.31550000   -34.80000000
  102.06540000   -18.25340000   -22.80000000
  102.05940000   -18.22640000   -21.30000000
  102.05340000   -18.19950000   -18.90000000
  102.04740000   -18.17260000   -16.40000000
  102.04140000   -18.14560000   -17.00000000
  102.03530000   -18.11870000   -18.60000000
  102.02930000   -18.09170000   -22.30000000
  102.02330000   -18.06480000   -25.80000000
  102.01730000   -18.03790000   -28.30000000
  102.01130000   -18.01090000   -29.90000000
  102.00530000   -17.98400000   -31.50000000
  101.99930000   -17.95700000   -30.10000000
  101.99320000   -17.93010000   -28.80000000
  101.98720000   -17.90310000   -23.30000000
  101.98120000   -17.87620000   -21.80000000
  101.97520000   -17.84930000   -21.40000000
  101.96920000   -17.82230000   -21.00000000
  101.96320000   -17.79540000   -21.60000000
  101.95710000   -17.76800000   -21.30000000
  101.95100000   -17.74070000   -20.90000000
  101.94500000   -17.71330000   -20.50000000
  101.93770000   -17.68730000   -26.30000000
  101.93030000   -17.66120000   -25.90000000
  101.92300000   -17.63520000   -25.60000000
  101.91570000   -17.60920000   -24.30000000
  101.90830000   -17.58310000   -23.90000000
  101.90100000   -17.55710000   -22.50000000
  101.89370000   -17.53100000   -21.30000000
  101.88630000   -17.50500000   -19.80000000
  101.78940000   -17.52040000   -35.00000000
  101.75870000   -17.52550000   -35.10000000
  101.72800000   -17.53070000   -35.50000000
  101.69730000   -17.53580000   -34.80000000
  101.66650000   -17.54090000   -33.00000000
  101.63580000   -17.54610000   -32.30000000
  101.60510000   -17.55120000   -30.40000000
  101.57440000   -17.55630000   -29.80000000
  101.54370000   -17.56150000   -30.00000000
  101.51300000   -17.56660000   -30.30000000
  101.48230000   -17.57170000   -30.50000000
  101.45160000   -17.57690000   -32.80000000
  101.42090000   -17.58200000   -36.00000000
  101.39020000   -17.58710000   -35.30000000
  101.35950000   -17.59230000   -32.60000000
  101.32880000   -17.59740000   -28.80000000
  101.29800000   -17.60260000   -25.10000000
  101.26720000   -17.60770000   -22.30000000
  101.23650000   -17.61300000   -22.50000000
  101.20580000   -17.61820000   -27.80000000
  101.17510000   -17.62350000   -33.10000000
  101.14430000   -17.62780000   -36.00000000
  101.11340000   -17.63050000   -36.00000000
  101.08240000   -17.63320000   -28.10000000
  101.05150000   -17.63590000   -23.30000000
  101.02060000   -17.63870000   -17.40000000
  100.98960000   -17.64140000   -11.60000000
  100.95870000   -17.64410000    -6.70000000
  100.86590000   -17.65230000     4.00000000
  100.83500000   -17.65500000     1.80000000
  100.80580000   -17.65740000     1.00000000
  100.77670000   -17.65990000    -2.10000000
  100.74750000   -17.66230000    -3.30000000
  100.71840000   -17.66480000    -6.50000000
  100.68920000   -17.66720000    -7.60000000
  100.66000000   -17.66970000    -8.70000000
  100.63060000   -17.67220000   -10.70000000
  100.60110000   -17.67460000   -10.80000000
  100.57160000   -17.67710000    -6.90000000
  100.54210000   -17.67960000    -4.00000000
  100.51260000   -17.68210000    -3.00000000
  100.48320000   -17.68450000    -1.20000000
  100.45370000   -17.68700000     0.70000000
  100.42420000   -17.68950000     3.60000000
  100.39460000   -17.69210000     5.20000000
  100.36500000   -17.69460000     6.10000000
  100.33530000   -17.69720000     5.90000000
  100.30570000   -17.69980000     3.70000000
  100.27610000   -17.70240000     0.60000000
  100.24640000   -17.70490000    -2.60000000
  100.21680000   -17.70750000    -4.80000000
  100.18770000   -17.71000000    -7.70000000
  100.15850000   -17.71260000    -8.90000000
  100.12940000   -17.71510000    -8.90000000
  100.10030000   -17.71760000   -11.10000000
  100.07110000   -17.72010000   -10.30000000
  100.04200000   -17.72270000    -8.40000000
  100.01290000   -17.72520000    -1.40000000
   99.98370000   -17.72770000     3.50000000
   99.95460000   -17.73020000     3.50000000
   99.92550000   -17.73280000     4.30000000
   99.89630000   -17.73530000     5.20000000
   99.86720000   -17.73780000     5.10000000
   99.83810000   -17.74030000     3.80000000
   99.80890000   -17.74290000     2.80000000
   99.77980000   -17.74540000     0.70000000
   99.64570000   -17.74660000    -7.80000000
   99.61690000   -17.75050000    -9.90000000
   99.58810000   -17.75440000   -12.30000000
   99.55930000   -17.75830000   -14.40000000
   99.53050000   -17.76230000   -15.70000000
   99.50160000   -17.76620000   -20.80000000
   99.47280000   -17.77010000   -25.00000000
   99.44400000   -17.77400000   -32.30000000
   99.41520000   -17.77790000   -37.50000000
   99.38640000   -17.78190000   -43.70000000
   99.35780000   -17.78590000   -43.30000000
   99.33000000   -17.79030000   -42.50000000
   99.30220000   -17.79470000   -36.80000000
   99.27450000   -17.79910000   -28.90000000
   99.24670000   -17.80350000   -18.10000000
   99.21890000   -17.80790000    -7.40000000
   99.19120000   -17.81230000    -0.60000000
   99.15810000   -17.81880000     4.80000000
   99.14530000   -17.82170000     2.50000000
   99.13250000   -17.82460000     1.40000000
   99.07690000   -17.83310000    -6.50000000
   99.04850000   -17.83650000     1.50000000
   99.02000000   -17.84000000     5.40000000
   98.99150000   -17.84350000    11.20000000
   98.96300000   -17.84700000    17.00000000
   98.93450000   -17.85050000    17.80000000
   98.90600000   -17.85400000    12.70000000
   98.87750000   -17.85750000     5.50000000
   98.84910000   -17.86090000    -2.80000000
   98.82060000   -17.86440000   -10.10000000
   98.79210000   -17.86790000   -13.30000000
   98.76310000   -17.87170000   -18.40000000
   98.73340000   -17.87610000   -20.80000000
   98.70360000   -17.88040000   -20.90000000
   98.67390000   -17.88470000   -18.10000000
   98.64410000   -17.88900000   -15.40000000
   98.61440000   -17.89330000   -11.70000000
   98.58470000   -17.89770000    -7.90000000
   98.55490000   -17.90200000    -6.10000000
   98.52520000   -17.90630000    -5.30000000
   98.49540000   -17.91060000    -9.60000000
   98.39760000   -17.92580000   -24.30000000
   98.36810000   -17.93030000   -26.90000000
   98.33860000   -17.93480000   -30.30000000
   98.30910000   -17.93930000   -31.40000000
   98.27950000   -17.94380000   -29.60000000
   98.25000000   -17.94830000   -24.90000000
   98.22050000   -17.95280000   -18.10000000
   98.19100000   -17.95730000   -12.40000000
   98.16190000   -17.96170000    -7.50000000
   98.13320000   -17.96580000    -4.70000000
   98.10460000   -17.97000000    -3.80000000
   98.07590000   -17.97430000    -5.10000000
   98.04680000   -17.97930000    -2.30000000
   98.01770000   -17.98420000    -1.60000000
   97.98870000   -17.98920000    -2.80000000
   97.95960000   -17.99410000    -4.20000000
   97.93060000   -17.99910000    -4.40000000
   97.90150000   -18.00410000    -3.60000000
   97.87250000   -18.00900000    -1.90000000
   97.84220000   -18.01480000    -2.80000000
   97.81160000   -18.02090000    -2.30000000
   97.78110000   -18.02690000    -1.50000000
   97.75050000   -18.03300000    -0.90000000
   97.71970000   -18.03610000    -0.60000000
   97.68890000   -18.03920000     0.50000000
   97.65810000   -18.04220000    -0.90000000
   97.62730000   -18.04530000    -2.00000000
   97.59650000   -18.04840000    -2.10000000
   97.56570000   -18.05150000    -3.30000000
   97.53490000   -18.05460000    -4.60000000
   97.50410000   -18.05770000    -5.70000000
   97.47330000   -18.06080000    -6.90000000
   97.44250000   -18.06390000    -9.10000000
   97.41170000   -18.06700000   -10.20000000
   97.38090000   -18.07010000   -10.40000000
   97.35010000   -18.07310000   -12.60000000
   97.31970000   -18.07600000   -10.60000000
   97.28980000   -18.07870000   -11.70000000
   97.25980000   -18.08130000   -12.90000000
   97.22990000   -18.08390000   -12.90000000
   97.20000000   -18.08650000   -12.10000000
   97.17010000   -18.08910000   -12.20000000
   97.14020000   -18.09170000   -13.40000000
   97.11020000   -18.09430000   -12.40000000
   97.08030000   -18.09690000   -12.70000000
   97.05040000   -18.09950000   -13.80000000
   97.02050000   -18.10220000   -13.90000000
   96.99060000   -18.10480000   -17.00000000
   96.96060000   -18.10740000   -19.10000000
   96.93070000   -18.11000000   -20.30000000
   96.93040000   -18.02920000   -19.50000000
   96.93020000   -18.00220000   -18.10000000
   96.93010000   -17.97530000   -16.80000000
   96.93000000   -17.94830000   -15.40000000
   96.92950000   -17.91810000   -17.60000000
   96.92900000   -17.88790000   -17.00000000
   96.92850000   -17.85770000   -15.40000000
   96.92800000   -17.82750000   -12.90000000
   96.92750000   -17.79730000   -13.40000000
   96.90790000   -17.71910000   -14.40000000
   96.90670000   -17.66430000   -15.70000000
   96.90610000   -17.63530000   -16.10000000
   96.90550000   -17.61450000   -19.00000000
   96.90480000   -17.58400000   -15.80000000
   96.90360000   -17.55390000   -16.30000000
   96.90250000   -17.52390000   -14.70000000
   96.90140000   -17.49390000   -13.20000000
   96.90020000   -17.46380000   -11.60000000
   96.89910000   -17.43380000   -10.10000000
   96.89800000   -17.40370000    -9.60000000
   96.89690000   -17.37370000    -9.90000000
   96.89010000   -17.19350000   -18.80000000
   96.88890000   -17.16340000   -17.30000000
   96.88780000   -17.13340000   -16.80000000
   96.88670000   -17.10330000   -16.30000000
   96.88470000   -17.07320000   -18.60000000
   96.88280000   -17.04300000   -20.10000000
   96.88090000   -17.01290000   -20.60000000
   96.87900000   -16.98280000   -22.10000000
   96.87700000   -16.95260000   -23.60000000
   96.87510000   -16.93280000   -25.60000000
   96.87320000   -16.91120000   -25.60000000
   96.87130000   -16.88100000   -24.00000000
   96.86930000   -16.85070000   -23.50000000
   96.86740000   -16.82040000   -23.00000000
   96.86620000   -16.79030000   -18.70000000
   96.86540000   -16.76020000   -19.30000000
   96.86460000   -16.73010000   -18.70000000
   96.86380000   -16.70010000   -16.30000000
   96.86310000   -16.67000000   -13.80000000
   96.86230000   -16.63990000   -12.40000000
   96.86150000   -16.60980000   -10.90000000
   96.86070000   -16.57970000    -9.40000000
   96.85990000   -16.54970000    -5.90000000
   96.85920000   -16.51960000    -6.40000000
   96.85840000   -16.48950000    -5.00000000
   96.85760000   -16.45940000    -4.50000000
   96.85680000   -16.42930000    -3.00000000
   96.85560000   -16.40050000    -4.00000000
   96.85420000   -16.37190000    -4.70000000
   96.85290000   -16.34340000    -4.30000000
   96.85150000   -16.31480000    -2.80000000
   96.85020000   -16.28670000    -4.50000000
   96.84880000   -16.25870000    -3.10000000
   96.84750000   -16.23060000    -1.80000000
   96.84620000   -16.20250000    -1.40000000
   96.84480000   -16.17440000    -1.00000000
   96.84350000   -16.14630000     0.40000000
   96.84210000   -16.11830000     1.80000000
   96.84080000   -16.09020000     3.00000000
   96.83970000   -16.06120000     3.70000000
   96.83880000   -16.03100000     7.20000000
   96.83800000   -16.00080000     7.70000000
   96.83720000   -15.97060000     8.10000000
   96.83630000   -15.94040000    10.40000000
   96.83550000   -15.91020000     9.90000000
   96.83470000   -15.88000000    10.40000000
   96.85000000   -14.18760000    -2.60000000
   96.85080000   -14.15710000    -5.40000000
   96.85170000   -14.12670000    -6.10000000
   96.85210000   -14.09780000    -7.90000000
   96.85250000   -14.06900000   -11.70000000
   96.85290000   -14.04010000   -14.40000000
   96.85330000   -14.01120000   -17.30000000
   96.85370000   -13.98240000   -22.00000000
   96.85420000   -13.95350000   -22.80000000
   96.85460000   -13.92470000   -25.60000000
   96.85500000   -13.89580000   -29.40000000
   96.85540000   -13.86700000   -33.30000000
   96.85580000   -13.83810000   -36.00000000
   96.85620000   -13.80930000   -34.80000000
   96.85670000   -13.78040000   -34.60000000
   96.85710000   -13.75160000   -27.40000000
   96.85750000   -13.72270000   -21.30000000
   96.85790000   -13.69390000   -10.10000000
   96.85830000   -13.66500000    15.40000000
   96.85970000   -13.63660000    45.00000000
   96.86110000   -13.60820000    55.30000000
   96.86250000   -13.57980000    33.50000000
   96.86400000   -13.55130000     7.60000000
   96.86540000   -13.52280000   -14.40000000
   96.86680000   -13.49430000   -25.30000000
   96.86820000   -13.46590000   -31.10000000
   96.87100000   -13.40890000   -38.80000000
   96.87250000   -13.38040000   -34.80000000
   96.87360000   -13.35170000   -34.80000000
   96.87410000   -13.32260000   -32.50000000
   96.87470000   -13.29360000   -27.30000000
   96.87530000   -13.26450000   -25.10000000
   96.87590000   -13.23540000   -25.00000000
   96.87640000   -13.20640000   -23.80000000
   96.87700000   -13.17730000   -22.60000000
   96.87760000   -13.14820000   -15.60000000
   96.87820000   -13.11920000   -10.40000000
   96.87880000   -13.09010000    -6.20000000
   96.87930000   -13.06130000    -6.10000000
   96.87990000   -13.03240000    -8.00000000
   96.88120000   -13.00400000    -7.50000000
   96.88270000   -12.97560000    -6.40000000
   96.88420000   -12.94730000    -6.20000000
   96.88570000   -12.91890000    -5.10000000
   96.88720000   -12.89060000    -7.00000000
   96.88870000   -12.86230000    -6.90000000
   96.89020000   -12.83390000    -7.80000000
   96.89170000   -12.80560000    -8.70000000
   96.89320000   -12.77720000    -8.60000000
   96.89460000   -12.74890000    -8.40000000
   96.89610000   -12.72050000    -8.40000000
   96.89760000   -12.69220000    -8.40000000
   96.89910000   -12.66380000    -5.30000000
   96.90060000   -12.63550000    -5.20000000
   96.90210000   -12.60710000    -5.10000000
   96.90360000   -12.57880000    -4.00000000
   96.90510000   -12.55040000    -3.80000000
   96.90660000   -12.52210000    -2.80000000
   96.90810000   -12.49370000    -1.80000000
   96.90960000   -12.46540000    -1.60000000
   96.91110000   -12.43700000    -1.50000000
   96.91260000   -12.40870000    -0.60000000
   96.91410000   -12.38030000     3.60000000
   96.91570000   -12.35230000    14.80000000
   96.91760000   -12.32480000    28.80000000
   96.91950000   -12.29730000    52.00000000
   96.92700000   -11.79560000    71.60000000
   96.92580000   -11.76630000    69.70000000
   96.92470000   -11.73710000    59.60000000
   96.92360000   -11.70790000    50.60000000
   96.92240000   -11.67860000    43.60000000
   96.92130000   -11.64940000    40.60000000
   96.92010000   -11.62010000    36.80000000
   96.88400000   -11.24260000    27.30000000
   96.88150000   -11.21170000    27.40000000
   96.87910000   -11.18090000    29.40000000
   96.87660000   -11.15000000    31.50000000
   96.87410000   -11.11920000    32.60000000
   96.87170000   -11.08830000    31.60000000
   96.86890000   -11.05990000    29.90000000
   96.86620000   -11.03140000    27.90000000
   96.86350000   -11.00290000    24.80000000
   96.86080000   -10.97440000    24.80000000
   96.85810000   -10.94590000    23.80000000
   96.85540000   -10.91750000    18.70000000
   96.85270000   -10.88900000    14.70000000
   96.85000000   -10.86050000    13.60000000
   96.84730000   -10.83200000    10.60000000
   96.84460000   -10.80360000     8.40000000
   96.84190000   -10.77510000     6.40000000
   96.83920000   -10.74660000     5.40000000
   96.83650000   -10.71810000     2.30000000
   96.83380000   -10.68980000     1.10000000
   96.83110000   -10.66140000     0.10000000
   96.82840000   -10.63300000    -2.00000000
   96.82570000   -10.60460000    -3.10000000
   96.82300000   -10.57620000    -4.30000000
   96.82030000   -10.54780000    -5.40000000
   96.81760000   -10.51950000    -3.50000000
   96.81490000   -10.49110000    -4.60000000
   96.81220000   -10.46270000    -5.70000000
   96.80970000   -10.43420000    -4.70000000
   96.80810000   -10.40500000    -3.70000000
   96.80660000   -10.37580000    -3.80000000
   96.80500000   -10.35220000    -5.10000000
   96.80350000   -10.32690000    -4.30000000
   96.80200000   -10.29730000    -5.40000000
   96.80040000   -10.26780000    -5.50000000
   96.79890000   -10.23820000    -4.50000000
   96.79730000   -10.20860000    -8.60000000
   96.79580000   -10.17900000    -8.70000000
   96.79420000   -10.14940000    -7.80000000
   96.79210000   -10.11940000   -11.90000000
   96.79560000    -9.94930000   -10.60000000
   96.79670000    -9.91970000    -9.70000000
   96.79790000    -9.89000000    -5.80000000
   96.79900000    -9.86040000    -4.90000000
   96.80010000    -9.83070000    -4.00000000
   96.80120000    -9.80110000    -1.00000000
   96.80240000    -9.77140000     1.90000000
   96.80350000    -9.74180000     4.90000000
   96.80460000    -9.71210000     3.70000000
   96.80580000    -9.68250000     5.70000000
   96.80690000    -9.65280000    13.60000000
   96.80800000    -9.62320000    19.40000000
   96.80920000    -9.59360000    19.30000000
   96.81030000    -9.56390000    17.10000000
   96.81140000    -9.53430000    18.00000000
   96.81270000    -9.50440000    16.10000000
   96.81390000    -9.47440000    13.10000000
   96.81510000    -9.44440000    11.90000000
   96.81640000    -9.41450000    10.80000000
   96.81760000    -9.38450000    12.70000000
   96.81880000    -9.35450000    12.60000000
   96.82010000    -9.32460000     9.40000000
   96.82130000    -9.29470000     7.20000000
   96.82250000    -9.26480000     9.10000000
   96.82380000    -9.23490000     9.90000000
   96.82500000    -9.20500000     7.80000000
   96.82600000    -9.17500000     3.00000000
   96.82700000    -9.14500000    -1.20000000
   96.82800000    -9.11500000    -4.50000000
   96.82900000    -9.08500000    -7.70000000
   96.83000000    -9.05500000   -10.90000000
   96.83100000    -9.02500000   -12.90000000
   96.83200000    -8.99500000   -15.20000000
   96.83300000    -8.96500000   -17.30000000
   96.83400000    -8.93500000   -17.50000000
   96.83500000    -8.90500000   -17.60000000
   96.83600000    -8.87500000   -18.80000000
   96.83700000    -8.84500000   -22.00000000
   96.83800000    -8.81500000   -23.30000000
   96.83900000    -8.78510000   -24.40000000
   96.84000000    -8.75500000   -24.50000000
   96.84140000    -8.72540000   -25.80000000
   96.84280000    -8.69580000   -25.90000000
   96.84420000    -8.66620000   -26.10000000
   96.84570000    -8.63660000   -26.30000000
   96.84710000    -8.60700000   -26.50000000
   96.84920000    -8.55310000   -27.30000000
   96.85060000    -8.52380000   -26.40000000
   96.85190000    -8.49440000   -25.60000000
   96.85330000    -8.46500000   -24.80000000
   96.85490000    -8.43540000   -19.60000000
   96.85650000    -8.40570000   -19.80000000
   96.87230000    -8.35040000   -14.20000000
   96.88230000    -8.32340000   -10.40000000
   96.89230000    -8.29650000    -8.70000000
   96.90230000    -8.26950000    -5.10000000
   96.91230000    -8.24250000     1.80000000
   96.92230000    -8.21550000     7.50000000
   96.93230000    -8.18850000    13.20000000
   96.94230000    -8.16150000    15.90000000
   96.95230000    -8.13450000    17.50000000
   96.96300000    -8.10740000    24.60000000
   96.97470000    -8.08020000    26.30000000
   96.98630000    -8.05300000    25.90000000
   96.99800000    -8.02580000    25.60000000
   97.01680000    -8.07250000    11.20000000
   97.02610000    -8.09860000     7.50000000
   97.03540000    -8.12460000     3.80000000
   97.04460000    -8.15060000     2.10000000
   97.05390000    -8.17670000     0.60000000
   97.06320000    -8.20270000    -1.20000000
   97.07250000    -8.22870000    -1.90000000
   97.08170000    -8.25480000    -3.50000000
   97.09100000    -8.28080000    -4.30000000
   97.16780000    -8.45890000     4.70000000
   97.17800000    -8.48490000     6.00000000
   97.18820000    -8.51090000     7.30000000
   97.19840000    -8.53690000     8.70000000
   97.20850000    -8.56270000     9.80000000
   97.21860000    -8.58830000     9.90000000
   97.22830000    -8.61310000    12.30000000
   97.23800000    -8.63800000    13.60000000
   97.24770000    -8.66280000    14.90000000
   97.25730000    -8.68760000    15.30000000
   97.26700000    -8.71250000    15.60000000
   97.27670000    -8.73730000    14.90000000
   97.28640000    -8.76220000    17.30000000
   97.29610000    -8.78710000    18.60000000
   97.30580000    -8.81200000    20.90000000
   97.31560000    -8.83690000    22.30000000
   97.32530000    -8.86180000    21.50000000
   97.33500000    -8.88670000    18.90000000
   97.34420000    -8.91290000    16.80000000
   97.35320000    -8.93850000    16.50000000
   97.36220000    -8.96410000    16.80000000
   97.37120000    -8.98980000    16.10000000
   97.38020000    -9.01540000    13.40000000
   97.38920000    -9.04100000    11.80000000
   97.39820000    -9.06670000     9.10000000
   97.40720000    -9.09230000     6.20000000
   97.41630000    -9.11800000     3.50000000
   97.42550000    -9.14420000     3.00000000
   97.43490000    -9.17130000     1.20000000
   97.44440000    -9.19850000    -0.60000000
   97.45390000    -9.22560000    -3.30000000
   97.46320000    -9.25230000    -7.60000000
   97.47260000    -9.27900000   -10.40000000
   97.48190000    -9.30580000   -11.10000000
   97.49120000    -9.33250000   -12.90000000
   97.50060000    -9.35920000   -13.70000000
   97.50990000    -9.38600000   -14.40000000
   97.51920000    -9.41270000   -13.20000000
   97.52860000    -9.43940000   -11.90000000
   97.53790000    -9.46620000   -10.80000000
   97.54720000    -9.49290000   -10.40000000
   97.55660000    -9.51960000    -9.30000000
   97.56590000    -9.54640000    -9.10000000
   97.57130000    -9.57400000   -12.20000000
   97.57680000    -9.60150000   -11.90000000
   97.58220000    -9.62910000   -11.80000000
   97.58760000    -9.65670000   -10.60000000
   97.59300000    -9.68430000   -10.40000000
   97.59850000    -9.71190000   -11.20000000
   97.60390000    -9.73950000   -15.10000000
   97.60920000    -9.76750000   -17.50000000
   97.61440000    -9.79570000   -20.30000000
   97.61960000    -9.82380000   -17.10000000
   97.62480000    -9.85200000   -16.00000000
   97.63000000    -9.88010000   -15.90000000
   97.63520000    -9.90820000   -15.80000000
   97.64040000    -9.93640000   -16.60000000
   97.64560000    -9.96450000   -17.40000000
   97.65060000    -9.99200000   -18.70000000
   97.65570000   -10.01950000   -19.50000000
   97.66040000   -10.04750000   -19.40000000
   97.66500000   -10.07530000   -20.30000000
   97.66970000   -10.10320000   -18.30000000
   97.67430000   -10.13110000   -18.00000000
   97.67900000   -10.15890000   -16.90000000
   97.68360000   -10.18680000   -14.80000000
   97.68830000   -10.21470000   -16.60000000
   97.69290000   -10.24250000   -15.60000000
   97.69760000   -10.27040000   -15.40000000
   97.70220000   -10.29830000   -15.30000000
   97.70710000   -10.32620000   -14.70000000
   97.71230000   -10.35430000   -14.60000000
   97.71750000   -10.38240000   -15.40000000
   97.72260000   -10.40980000   -14.80000000
   97.74040000   -10.51830000    -2.10000000
   97.74470000   -10.54540000     3.10000000
   97.74910000   -10.57250000     3.30000000
   97.75340000   -10.59970000     1.40000000
   97.75780000   -10.62690000     0.60000000
   97.76210000   -10.65410000    -0.50000000
   97.76640000   -10.68130000    -2.30000000
   97.77080000   -10.70850000    -3.30000000
   97.77510000   -10.73570000    -5.20000000
   97.77950000   -10.76290000    -7.10000000
   97.78380000   -10.79010000    -8.00000000
   97.78820000   -10.81720000    -6.90000000
   97.79250000   -10.84440000    -4.80000000
   97.79680000   -10.87160000    -4.70000000
   97.80090000   -10.89740000    -3.30000000
   97.80490000   -10.92310000    -2.10000000
   97.80890000   -10.94890000    -2.00000000
   97.81290000   -10.97470000    -6.00000000
   97.81690000   -11.00040000    -6.80000000
   97.82090000   -11.02620000    -9.70000000
   97.82530000   -11.05200000    -9.40000000
   97.83010000   -11.07790000   -12.30000000
   97.83500000   -11.10380000   -15.20000000
   97.83980000   -11.12970000   -16.00000000
   97.84470000   -11.15560000   -16.80000000
   97.84950000   -11.18150000   -17.80000000
   97.85550000   -11.20640000   -13.70000000
   97.86150000   -11.23130000   -14.60000000
   97.86750000   -11.25630000   -12.40000000
   97.87350000   -11.28120000   -11.30000000
   97.87950000   -11.30620000   -13.20000000
   97.88520000   -11.33050000   -14.60000000
   97.89100000   -11.35480000   -14.40000000
   97.89680000   -11.37920000   -13.30000000
   97.90250000   -11.40350000   -14.20000000
   97.90830000   -11.42790000   -12.90000000
   97.91400000   -11.45220000   -10.80000000
   97.91980000   -11.47650000   -11.70000000
   97.92550000   -11.50090000   -13.40000000
   97.93130000   -11.52520000   -12.40000000
   97.93700000   -11.54960000   -13.30000000
   97.94240000   -11.57420000   -12.70000000
   97.94720000   -11.59920000   -12.60000000
   97.95200000   -11.62430000    -9.40000000
   97.96570000   -11.69740000   -15.40000000
   97.97030000   -11.72180000   -12.40000000
   97.97490000   -11.74620000   -10.20000000
   97.97950000   -11.77060000   -10.10000000
   97.98410000   -11.79500000    -9.90000000
   97.98900000   -11.81940000    -4.20000000
   97.99500000   -11.84360000    -2.00000000
   98.00100000   -11.86790000    -3.00000000
   98.00700000   -11.89220000    -4.90000000
   98.01300000   -11.91640000    -5.70000000
   98.01900000   -11.94070000    -1.50000000
   98.02500000   -11.96500000    -2.50000000
   98.03100000   -11.98930000    -1.30000000
   98.03610000   -12.01030000    -3.50000000
   98.04110000   -12.03140000    -4.40000000
   98.04620000   -12.05240000    -5.10000000
   98.05130000   -12.07350000    -4.90000000
   98.05630000   -12.09450000    -3.60000000
   98.06140000   -12.11550000    -3.50000000
   98.06640000   -12.13660000    -2.10000000
   98.12650000   -12.38680000     6.40000000
   98.13150000   -12.40760000     7.60000000
   98.13640000   -12.42830000     9.90000000
   98.14140000   -12.44900000     9.10000000
   98.14640000   -12.46970000    10.30000000
   98.15130000   -12.49040000    11.40000000
   98.15630000   -12.51120000    12.70000000
   98.16130000   -12.53190000    12.90000000
   98.16620000   -12.55260000    13.20000000
   98.17120000   -12.57330000    17.30000000
   98.17620000   -12.59410000    19.50000000
   98.18120000   -12.61480000    25.80000000
   98.18620000   -12.63560000    27.00000000
   98.19120000   -12.65610000    27.60000000
   98.19630000   -12.67570000    28.90000000
   98.20150000   -12.69530000    32.10000000
   98.20670000   -12.71490000    36.50000000
   98.21180000   -12.73450000    37.60000000
   98.21700000   -12.75420000    40.00000000
   98.22210000   -12.77380000    40.10000000
   98.22730000   -12.79340000    40.50000000
   98.23250000   -12.81300000    43.60000000
   98.23760000   -12.83260000    45.80000000
   98.24280000   -12.85220000    47.10000000
   98.24790000   -12.87180000    48.30000000
   98.25310000   -12.89140000    50.60000000
   98.25820000   -12.91110000    55.80000000
   98.26370000   -12.93170000    57.80000000
   98.26920000   -12.95230000    62.00000000
   98.27460000   -12.97290000    65.30000000
   98.28010000   -12.99360000    66.50000000
   98.28550000   -13.01420000    69.70000000
   98.29100000   -13.03480000    67.80000000
   98.29650000   -13.05540000    67.00000000
   98.30190000   -13.07610000    66.20000000
   98.30740000   -13.09670000    64.40000000
   98.31290000   -13.11730000    62.50000000
   98.31830000   -13.13800000    56.60000000
   98.32380000   -13.15860000    50.80000000
   98.32920000   -13.17920000    46.00000000
   98.33470000   -13.19980000    41.10000000
   98.34020000   -13.22050000    38.30000000
   98.34560000   -13.24110000    35.50000000
   98.35110000   -13.26170000    31.60000000
   98.35660000   -13.28230000    28.80000000
   98.36200000   -13.30280000    26.80000000
   98.36740000   -13.32320000    27.00000000
   98.37280000   -13.34370000    28.30000000
   98.37820000   -13.36420000    25.30000000
   98.38360000   -13.38460000    24.50000000
   98.38910000   -13.40510000    24.80000000
   98.39450000   -13.42550000    21.90000000
   98.39990000   -13.44600000    20.00000000
   98.40530000   -13.46640000    18.30000000
   98.41070000   -13.48690000    15.40000000
   98.41620000   -13.50730000    11.60000000
   98.42070000   -13.52830000     5.40000000
   98.42520000   -13.54930000    -1.60000000
   98.42970000   -13.57020000    -4.50000000
   98.43420000   -13.59120000    -4.40000000
   98.43870000   -13.61210000    -7.30000000
   98.44320000   -13.63310000   -11.10000000
   98.44770000   -13.65410000   -12.90000000
   98.45230000   -13.67530000   -16.60000000
   98.45690000   -13.69660000   -18.40000000
   98.46160000   -13.71780000   -21.30000000
   98.46620000   -13.73910000   -23.30000000
   98.47080000   -13.76030000   -26.10000000
   98.47540000   -13.78160000   -27.00000000
   98.48000000   -13.80280000   -30.90000000
   98.48490000   -13.82420000   -29.80000000
   98.49110000   -13.84620000   -33.60000000
   98.49740000   -13.86810000   -35.50000000
   98.50360000   -13.89000000   -37.50000000
   98.50980000   -13.91200000   -38.50000000
   98.51600000   -13.93390000   -36.30000000
   98.52090000   -13.95110000   -34.60000000
   98.52720000   -13.97350000   -35.60000000
   98.53360000   -13.99590000   -36.50000000
   98.54000000   -14.01830000   -37.50000000
   98.54630000   -14.04070000   -38.50000000
   98.55240000   -14.06290000   -41.10000000
   98.55850000   -14.08510000   -43.00000000
   98.56460000   -14.10730000   -45.00000000
   98.57070000   -14.12950000   -48.00000000
   98.57680000   -14.15170000   -49.00000000
   98.58290000   -14.17390000   -52.80000000
   98.58910000   -14.19650000   -53.50000000
   98.59530000   -14.21900000   -54.50000000
   98.60150000   -14.24160000   -54.50000000
   98.60770000   -14.26420000   -52.50000000
   98.61390000   -14.28680000   -52.50000000
   98.62010000   -14.30930000   -50.30000000
   98.63290000   -14.36050000   -44.80000000
   98.63780000   -14.37970000   -40.60000000
   98.64270000   -14.39890000   -38.50000000
   98.64760000   -14.41820000   -37.30000000
   98.65250000   -14.43740000   -41.10000000
   98.65750000   -14.45660000   -42.00000000
   98.66240000   -14.47580000   -40.80000000
   98.66540000   -14.49130000   -38.00000000
   98.66690000   -14.49900000   -38.50000000
   98.67440000   -14.52970000   -42.00000000
   98.67940000   -14.54910000   -42.00000000
   98.68430000   -14.56850000   -42.80000000
   98.68930000   -14.58790000   -42.60000000
   98.69430000   -14.60730000   -43.50000000
   98.69920000   -14.62660000   -43.30000000
   98.70420000   -14.64600000   -43.10000000
   98.70920000   -14.66540000   -42.00000000
   98.71410000   -14.68480000   -44.80000000
