  100.81020000   -18.60620000   -18.90000000
  100.81140000   -18.58660000   -19.90000000
  100.81270000   -18.56700000   -24.00000000
  100.81390000   -18.54750000   -25.00000000
  100.81520000   -18.52790000   -28.00000000
  100.81650000   -18.50830000   -30.00000000
  100.81770000   -18.48870000   -33.00000000
  100.81900000   -18.46920000   -35.00000000
  100.88000000   -18.50200000   -51.60000000
  100.89520000   -18.51020000   -53.10000000
  100.91050000   -18.51840000   -51.50000000
  100.92600000   -18.52680000   -51.30000000
  100.94150000   -18.53520000   -49.80000000
  101.00740000   -18.57150000   -37.30000000
  101.02550000   -18.58530000   -39.10000000
  101.04410000   -18.59920000   -33.30000000
  101.06450000   -18.61380000   -34.00000000
  101.08490000   -18.62840000   -32.80000000
  101.10510000   -18.64330000   -33.10000000
  101.12530000   -18.65820000   -33.00000000
  101.14550000   -18.67320000   -32.80000000
  101.16570000   -18.68810000   -33.50000000
  101.18590000   -18.70300000   -32.30000000
  101.20600000   -18.71800000   -32.10000000
  101.22620000   -18.73290000   -29.80000000
  101.24640000   -18.74790000   -29.60000000
  101.26690000   -18.76210000   -29.40000000
  101.28750000   -18.77590000   -29.10000000
  101.30810000   -18.78970000   -28.80000000
  101.32870000   -18.80350000   -28.60000000
  101.34960000   -18.81750000   -26.60000000
  101.37050000   -18.83150000   -26.40000000
  101.39140000   -18.84540000   -25.10000000
  101.41220000   -18.85940000   -25.80000000
  101.43270000   -18.87340000   -24.50000000
  101.45260000   -18.88720000   -26.30000000
  101.47230000   -18.90110000   -24.00000000
  101.49200000   -18.91490000   -25.80000000
  101.51170000   -18.92870000   -28.60000000
  101.53150000   -18.94250000   -29.30000000
  101.55120000   -18.95640000   -30.10000000
  101.57090000   -18.97020000   -30.90000000
  101.59060000   -18.98400000   -29.60000000
  101.61030000   -18.99790000   -28.30000000
  101.63000000   -19.01170000   -28.00000000
  101.64970000   -19.02550000   -26.80000000
  101.66950000   -19.03930000   -28.50000000
  101.68920000   -19.05320000   -29.30000000
  101.70950000   -19.06740000   -30.80000000
  101.72970000   -19.08150000   -32.60000000
  101.75000000   -19.09570000   -33.50000000
  101.77030000   -19.10990000   -34.10000000
  101.79060000   -19.12410000   -33.00000000
  101.81080000   -19.13830000   -30.60000000
  101.83070000   -19.15210000   -32.10000000
  101.84980000   -19.16520000   -32.80000000
  101.86900000   -19.17830000   -31.50000000
  101.88810000   -19.19150000   -31.30000000
  101.90730000   -19.20460000   -30.90000000
  101.92640000   -19.21770000   -30.60000000
  101.94560000   -19.23080000   -32.50000000
  101.96470000   -19.24390000   -33.10000000
  101.98390000   -19.25710000   -34.00000000
  102.00310000   -19.27020000   -34.60000000
  102.06590000   -19.24940000   -36.80000000
  102.08790000   -19.23800000   -36.10000000
  102.10990000   -19.22670000   -33.50000000
  102.13190000   -19.21530000   -30.80000000
  102.15400000   -19.20390000   -30.10000000
  102.17600000   -19.19260000   -29.50000000
  102.19800000   -19.18120000   -28.90000000
  102.22000000   -19.16980000   -28.30000000
  102.24200000   -19.15850000   -27.60000000
  102.26400000   -19.14710000   -27.00000000
  102.28600000   -19.13580000   -26.30000000
  102.30810000   -19.12460000   -28.80000000
  102.33010000   -19.11400000   -28.10000000
  102.35210000   -19.10350000   -29.60000000
  102.37410000   -19.09290000   -29.00000000
  102.39540000   -19.08270000   -30.30000000
  102.41670000   -19.07250000   -30.60000000
  102.43800000   -19.06230000   -32.10000000
  102.45930000   -19.05220000   -31.50000000
  102.48070000   -19.04230000   -31.90000000
  102.50240000   -19.03380000   -33.50000000
  102.52420000   -19.02530000   -35.00000000
  102.54590000   -19.01680000   -35.60000000
  102.56760000   -19.00820000   -35.10000000
  102.58940000   -18.99970000   -34.80000000
  102.61110000   -18.99120000   -34.30000000
  102.63290000   -18.98270000   -33.80000000
  102.64870000   -19.10260000   -31.50000000
  102.64840000   -19.12600000   -30.80000000
  102.64820000   -19.14940000   -28.90000000
  102.64790000   -19.17290000   -28.30000000
  102.64760000   -19.19630000   -26.40000000
  102.64770000   -19.21980000   -24.30000000
  102.64800000   -19.23630000   -25.10000000
  102.64840000   -19.25200000   -24.00000000
  102.64870000   -19.26780000   -23.80000000
  102.64900000   -19.28350000   -23.80000000
  102.64940000   -19.30260000   -24.80000000
  102.64970000   -19.32660000   -25.10000000
  102.65010000   -19.35060000   -25.40000000
  102.65040000   -19.37450000   -24.80000000
  102.65070000   -19.39850000   -25.10000000
  102.65110000   -19.42250000   -24.40000000
  102.65140000   -19.44650000   -24.80000000
  102.65170000   -19.47050000   -24.00000000
  102.65210000   -19.49450000   -24.30000000
  102.65240000   -19.51850000   -24.80000000
  102.65280000   -19.54240000   -24.00000000
  102.65310000   -19.56640000   -23.30000000
  102.65340000   -19.59070000   -21.60000000
  102.65590000   -19.54000000   -23.50000000
  102.65720000   -19.51610000   -21.10000000
  102.65850000   -19.49220000   -19.80000000
  102.65990000   -19.46830000   -20.50000000
  102.66120000   -19.44440000   -22.30000000
  102.66260000   -19.42290000   -22.00000000
  102.66390000   -19.40310000   -22.90000000
  102.66520000   -19.38320000   -22.80000000
  102.67270000   -19.41650000   -23.90000000
  102.67350000   -19.43200000   -23.80000000
  102.67430000   -19.44760000   -23.60000000
  102.67510000   -19.46310000   -21.40000000
  102.68100000   -19.36250000   -20.50000000
  102.68110000   -19.34090000   -20.30000000
  102.68120000   -19.31930000   -20.10000000
  102.68130000   -19.29770000   -19.90000000
  102.68140000   -19.27620000   -18.80000000
  102.68150000   -19.25460000   -18.50000000
  102.68170000   -19.23300000   -18.40000000
  102.68180000   -19.21140000   -19.30000000
  102.68190000   -19.18980000   -19.00000000
  102.68200000   -19.16820000   -17.80000000
  102.68210000   -19.14660000   -18.60000000
  102.68220000   -19.12500000   -20.50000000
  102.68230000   -19.10340000   -21.40000000
  102.68240000   -19.08180000   -23.30000000
  102.68250000   -19.06020000   -26.10000000
  102.68260000   -19.03860000   -27.00000000
  102.68270000   -19.01670000   -28.90000000
  102.68280000   -18.99470000   -27.60000000
  102.68290000   -18.97280000   -28.50000000
  102.68300000   -18.95090000   -29.30000000
  102.68310000   -18.92890000   -28.10000000
  102.68320000   -18.90700000   -27.90000000
  102.68330000   -18.88500000   -29.80000000
  102.68340000   -18.86310000   -30.60000000
  102.68350000   -18.84110000   -33.50000000
  102.68360000   -18.81920000   -34.30000000
  102.68370000   -18.79720000   -34.10000000
  102.68380000   -18.77530000   -35.00000000
  102.68390000   -18.75340000   -33.80000000
  102.68940000   -18.81380000   -37.50000000
  102.69100000   -18.83800000   -35.80000000
  102.69260000   -18.86220000   -36.10000000
  102.69420000   -18.88630000   -33.50000000
  102.69580000   -18.91050000   -33.80000000
  102.69740000   -18.93470000   -34.00000000
  102.69900000   -18.95880000   -31.30000000
  102.70060000   -18.98300000   -30.40000000
  102.70220000   -19.00720000   -30.80000000
  102.70340000   -19.03040000   -31.80000000
  102.70470000   -19.05360000   -33.10000000
  102.70600000   -19.07690000   -33.30000000
  102.70730000   -19.10010000   -31.60000000
  102.70850000   -19.12330000   -32.80000000
  102.70980000   -19.14660000   -32.10000000
  102.71110000   -19.16980000   -31.30000000
  102.71240000   -19.19300000   -29.60000000
  102.70950000   -19.21680000   -31.50000000
  102.70670000   -19.24050000   -29.80000000
  102.70370000   -19.26340000   -31.10000000
  102.69960000   -19.28290000   -30.10000000
  102.69550000   -19.30240000   -30.30000000
  102.69140000   -19.32190000   -30.30000000
  102.58250000   -19.42660000   -15.40000000
  102.56330000   -19.43860000   -18.80000000
  102.54260000   -19.45140000   -19.50000000
  102.52180000   -19.46430000   -22.30000000
  102.50100000   -19.47720000   -25.00000000
  102.48020000   -19.49010000   -25.80000000
  102.45950000   -19.50290000   -30.60000000
  102.43870000   -19.51580000   -31.30000000
  102.41790000   -19.52870000   -31.00000000
  102.39720000   -19.54150000   -32.80000000
  102.37640000   -19.55440000   -33.50000000
  102.35560000   -19.56730000   -33.30000000
  102.33430000   -19.58000000   -36.00000000
  102.31260000   -19.59220000   -35.80000000
  102.29090000   -19.60440000   -36.50000000
  102.26920000   -19.61660000   -39.30000000
  102.24750000   -19.62880000   -39.00000000
  102.22540000   -19.64140000   -42.60000000
  102.20330000   -19.65390000   -43.30000000
  102.18110000   -19.66650000   -44.00000000
  102.15900000   -19.67910000   -42.80000000
  102.13690000   -19.69160000   -40.30000000
  102.11480000   -19.70420000   -39.00000000
  102.09260000   -19.71670000   -36.60000000
  102.07050000   -19.72930000   -35.30000000
  102.04860000   -19.74150000   -31.30000000
  102.02760000   -19.75260000   -29.80000000
  102.00670000   -19.76360000   -27.30000000
  101.98570000   -19.77460000   -29.00000000
  101.96470000   -19.78560000   -30.60000000
  101.94370000   -19.79660000   -29.30000000
  101.92280000   -19.80760000   -28.60000000
  101.90190000   -19.81860000   -29.30000000
  101.88100000   -19.82950000   -26.80000000
  101.76450000   -19.86900000   -26.90000000
  101.74140000   -19.88090000   -25.50000000
  101.71840000   -19.89290000   -24.30000000
  101.69540000   -19.90490000   -23.90000000
  101.67230000   -19.91680000   -22.50000000
  101.53410000   -19.98860000   -26.60000000
  101.51110000   -20.00060000   -26.30000000
  101.46500000   -20.02450000   -20.80000000
  101.44200000   -20.03650000   -21.50000000
  101.41900000   -20.04850000   -19.30000000
  101.39600000   -20.06050000   -18.80000000
  101.37360000   -20.07200000   -16.80000000
  101.32880000   -20.09510000   -17.30000000
  101.30640000   -20.10670000   -18.90000000
  101.28400000   -20.11830000   -17.50000000
  101.26160000   -20.12980000   -17.10000000
  101.27960000   -20.17500000   -27.00000000
  101.30270000   -20.17470000   -29.10000000
  101.32570000   -20.17450000   -28.00000000
  101.34870000   -20.17430000   -27.00000000
  101.37170000   -20.17400000   -27.00000000
  101.28890000   -20.17350000   -12.40000000
  101.26390000   -20.17340000   -12.40000000
  101.01660000   -20.13240000    -4.80000000
  100.99050000   -20.12390000    -2.10000000
  100.96430000   -20.11550000    -1.80000000
  100.93810000   -20.10700000    -1.30000000
  100.91190000   -20.09860000     0.40000000
  100.88570000   -20.09010000     3.00000000
  100.85950000   -20.08170000     4.50000000
  100.83330000   -20.07320000     5.00000000
  100.80720000   -20.06480000     2.30000000
  100.78100000   -20.05640000    -2.30000000
  100.75480000   -20.04790000    -6.00000000
  100.72860000   -20.03950000   -11.70000000
  100.70240000   -20.03100000   -16.30000000
  100.67620000   -20.02260000   -24.90000000
  100.65000000   -20.01410000   -30.50000000
  100.62320000   -20.00550000   -37.80000000
  100.59630000   -19.99680000   -41.50000000
  100.56950000   -19.98810000   -43.00000000
  100.54270000   -19.97950000   -42.50000000
  100.51580000   -19.97080000   -42.00000000
  100.48900000   -19.96210000   -41.50000000
  100.46210000   -19.95340000   -41.00000000
  100.43490000   -19.94470000   -44.10000000
  100.40610000   -19.93600000   -41.60000000
  100.37730000   -19.92720000   -39.00000000
  100.34850000   -19.91850000   -38.50000000
  100.32020000   -19.90980000   -37.00000000
  100.29190000   -19.90120000   -37.50000000
  100.26360000   -19.89250000   -37.00000000
  100.23530000   -19.88380000   -38.50000000
  100.20700000   -19.87510000   -40.00000000
  100.17870000   -19.86650000   -43.60000000
  100.15040000   -19.85780000   -45.10000000
  100.12250000   -19.84930000   -46.80000000
  100.09500000   -19.84050000   -48.30000000
  100.06800000   -19.83130000   -47.80000000
  100.04100000   -19.82220000   -49.10000000
  100.01410000   -19.81320000   -48.60000000
   99.98720000   -19.80410000   -48.10000000
   99.96030000   -19.79510000   -48.60000000
   99.93330000   -19.78600000   -48.10000000
   99.90640000   -19.77690000   -46.50000000
   99.87950000   -19.76790000   -45.00000000
   99.85250000   -19.75880000   -43.50000000
   99.82560000   -19.74980000   -38.80000000
   99.79810000   -19.74070000   -37.50000000
   99.77020000   -19.73160000   -34.00000000
   99.74240000   -19.72250000   -30.30000000
   99.71450000   -19.71330000   -27.80000000
   99.68670000   -19.70420000   -27.30000000
   99.65880000   -19.69510000   -28.80000000
   99.63140000   -19.68630000   -28.40000000
   99.60430000   -19.67770000   -27.90000000
   99.57730000   -19.66920000   -24.30000000
   99.55030000   -19.66070000   -19.80000000
   99.52330000   -19.65220000   -18.30000000
   99.49630000   -19.64360000   -21.90000000
   99.46920000   -19.63510000   -26.50000000
   99.44220000   -19.62660000   -31.10000000
   99.41520000   -19.61810000   -33.80000000
   99.38820000   -19.60960000   -33.30000000
   99.36110000   -19.60100000   -32.80000000
   99.33410000   -19.59250000   -31.30000000
   99.30710000   -19.58400000   -29.80000000
   99.28010000   -19.57550000   -29.30000000
   99.25310000   -19.56700000   -29.80000000
   99.22600000   -19.55840000   -30.30000000
   99.19900000   -19.54990000   -30.90000000
   99.17200000   -19.54140000   -29.30000000
   99.14560000   -19.53310000   -26.40000000
   99.11920000   -19.52480000   -25.90000000
   99.09280000   -19.51650000   -29.60000000
   99.06650000   -19.50820000   -34.30000000
   99.04010000   -19.49980000   -36.80000000
   99.01370000   -19.49150000   -39.50000000
   98.98730000   -19.48320000   -41.00000000
   98.96090000   -19.47490000   -41.50000000
   98.93450000   -19.46660000   -40.00000000
   98.90820000   -19.45830000   -37.50000000
   98.88180000   -19.45000000   -35.00000000
   98.91170000   -19.36530000   -44.80000000
   98.92470000   -19.34680000   -44.60000000
   98.93780000   -19.32830000   -46.80000000
   98.95080000   -19.30980000   -47.80000000
   98.96390000   -19.29130000   -45.60000000
   98.97690000   -19.27270000   -42.50000000
   98.99000000   -19.25420000   -40.50000000
   98.93370000   -19.15350000   -40.10000000
   98.93140000   -19.17590000   -40.30000000
   98.92910000   -19.19830000   -41.60000000
   98.92670000   -19.22070000   -41.80000000
   98.92440000   -19.24310000   -40.00000000
   98.92210000   -19.26550000   -39.30000000
   98.91980000   -19.28790000   -39.50000000
   98.91690000   -19.31040000   -41.50000000
   98.91380000   -19.33300000   -41.80000000
   98.91070000   -19.35560000   -41.00000000
   98.90760000   -19.37810000   -40.30000000
   98.90410000   -19.39870000   -40.80000000
   98.90040000   -19.41870000   -39.80000000
   98.89670000   -19.43870000   -38.00000000
   98.89310000   -19.45870000   -37.00000000
   98.88940000   -19.47880000   -38.10000000
   98.88570000   -19.49860000   -38.10000000
   98.88120000   -19.45340000   -34.60000000
   98.88180000   -19.42770000   -33.10000000
   98.88240000   -19.40200000   -32.80000000
   98.88300000   -19.37630000   -32.30000000
   98.88360000   -19.35070000   -34.00000000
   98.88420000   -19.32500000   -34.50000000
   98.88480000   -19.29930000   -36.10000000
   98.88540000   -19.27360000   -34.80000000
   98.88600000   -19.24790000   -34.10000000
   98.88650000   -19.22290000   -36.80000000
   98.85360000   -19.16340000   -22.60000000
   98.83250000   -19.15070000   -20.80000000
   98.81130000   -19.13810000   -20.10000000
   98.79070000   -19.12650000   -17.10000000
   98.77050000   -19.11560000   -16.50000000
   98.81930000   -19.09640000   -47.10000000
   98.83550000   -19.09000000   -45.80000000
   98.85180000   -19.08360000   -47.50000000
   98.86800000   -19.07730000   -50.30000000
   98.88430000   -19.07090000   -50.80000000
   98.90050000   -19.06450000   -51.50000000
   98.91670000   -19.05810000   -50.10000000
   98.93300000   -19.05170000   -50.80000000
   98.94920000   -19.04530000   -49.50000000
   98.96550000   -19.03900000   -49.10000000
   98.98170000   -19.03260000   -47.80000000
   98.99800000   -19.02620000   -45.30000000
   99.01420000   -19.01980000   -43.00000000
   99.03050000   -19.01340000   -41.50000000
   98.98660000   -18.97450000   -20.80000000
   98.96650000   -18.96370000   -21.30000000
   98.94650000   -18.95290000   -21.60000000
   98.92650000   -18.94200000   -22.00000000
   98.90640000   -18.93120000   -26.50000000
   98.88640000   -18.92040000   -28.00000000
   98.86630000   -18.90950000   -30.40000000
   98.84630000   -18.89870000   -29.80000000
   98.82630000   -18.88790000   -27.30000000
   98.80620000   -18.87700000   -28.60000000
   98.73810000   -18.87570000   -17.80000000
   98.71540000   -18.87530000   -14.70000000
   98.69260000   -18.87480000   -14.70000000
   98.66990000   -18.87440000   -17.60000000
   98.64720000   -18.87390000   -19.60000000
   98.63330000   -18.92170000   -39.30000000
   98.63230000   -18.94090000   -39.50000000
   98.63130000   -18.96010000   -39.50000000
   98.63020000   -18.97930000   -39.50000000
   98.62920000   -18.99850000   -39.50000000
   98.62820000   -19.01770000   -40.60000000
   98.62720000   -19.03690000   -40.60000000
   98.62620000   -19.05610000   -41.80000000
   98.62520000   -19.07530000   -42.80000000
   98.62380000   -19.09170000   -43.50000000
   98.62240000   -19.10800000   -42.50000000
   98.62100000   -19.11410000   -41.80000000
   98.61540000   -19.04550000   -40.00000000
   98.61400000   -19.02000000   -38.50000000
   98.61260000   -18.99450000   -35.10000000
   98.61120000   -18.96890000   -33.80000000
   98.60980000   -18.94340000   -33.30000000
   98.60840000   -18.91790000   -33.00000000
   98.60710000   -18.89240000   -33.50000000
   98.60570000   -18.86680000   -33.10000000
   98.60430000   -18.84130000   -34.80000000
   98.60290000   -18.81580000   -33.50000000
   98.60150000   -18.79030000   -34.00000000
   98.60010000   -18.76470000   -32.60000000
   98.59870000   -18.73920000   -30.30000000
   98.59720000   -18.71380000   -31.50000000
   98.59550000   -18.68840000   -30.10000000
   98.59390000   -18.66340000   -29.80000000
   98.59220000   -18.63840000   -30.40000000
   98.59060000   -18.61340000   -28.00000000
   98.58900000   -18.58840000   -29.80000000
   98.58730000   -18.56330000   -27.40000000
   98.58570000   -18.53830000   -27.00000000
   98.58410000   -18.51330000   -27.80000000
   98.59720000   -18.52280000   -28.10000000
   98.59780000   -18.53560000   -28.80000000
   98.59840000   -18.55520000   -32.60000000
   98.59900000   -18.58170000   -35.10000000
   98.59970000   -18.60820000   -35.50000000
   98.60040000   -18.63470000   -37.00000000
   98.60100000   -18.66120000   -34.30000000
   98.60170000   -18.68770000   -34.80000000
   98.60240000   -18.71420000   -35.10000000
   98.60300000   -18.74070000   -35.60000000
   98.60370000   -18.76720000   -35.00000000
   98.60440000   -18.79370000   -36.50000000
   98.60500000   -18.82020000   -36.80000000
   98.60570000   -18.84670000   -37.30000000
   98.60640000   -18.87320000   -37.80000000
   98.60700000   -18.89970000   -38.30000000
   98.60770000   -18.92620000   -37.60000000
   98.60840000   -18.95270000   -37.00000000
   98.60900000   -18.97920000   -38.50000000
   98.60970000   -18.99980000   -37.50000000
   98.61040000   -19.01890000   -38.60000000
   98.61110000   -19.03860000   -37.60000000
   98.61180000   -19.05830000   -37.60000000
   98.61250000   -19.07800000   -37.80000000
   98.61320000   -19.09770000   -37.80000000
   98.61370000   -19.11200000   -37.80000000
   98.65230000   -19.04630000   -33.30000000
   98.66180000   -19.02530000   -29.90000000
   98.67130000   -19.00430000   -27.80000000
   98.68080000   -18.98340000   -25.60000000
   98.69030000   -18.96240000   -23.40000000
   98.69970000   -18.94140000   -26.30000000
   98.70920000   -18.92040000   -26.10000000
   98.71870000   -18.89940000   -24.90000000
   98.72820000   -18.87840000   -23.80000000
   98.73770000   -18.85750000   -25.80000000
   98.74720000   -18.83650000   -25.50000000
   98.75670000   -18.81550000   -25.40000000
   98.76660000   -18.79140000   -24.90000000
   98.77660000   -18.76740000   -26.80000000
   98.78650000   -18.74330000   -28.40000000
   98.79640000   -18.71950000   -29.40000000
   98.80620000   -18.69560000   -30.10000000
   98.81600000   -18.67180000   -31.90000000
   98.83270000   -18.62630000   -34.10000000
   98.83640000   -18.61490000   -33.50000000
   98.86620000   -18.55660000   -37.00000000
   98.87760000   -18.53520000   -34.80000000
   98.88910000   -18.51380000   -34.50000000
   98.90020000   -18.49290000   -30.30000000
   98.91130000   -18.47200000   -30.10000000
   98.92240000   -18.45110000   -30.00000000
   98.93360000   -18.43020000   -28.90000000
   98.94470000   -18.40940000   -27.80000000
   98.95580000   -18.38850000   -27.80000000
   98.96700000   -18.36760000   -27.60000000
   98.97810000   -18.34670000   -26.40000000
   98.99010000   -18.32430000   -20.50000000
   99.00230000   -18.30160000   -16.30000000
   99.01370000   -18.28170000   -18.30000000
   99.02380000   -18.26600000   -18.40000000
   99.03380000   -18.25060000   -17.80000000
   99.04380000   -18.23510000   -17.00000000
   99.05380000   -18.21960000   -15.30000000
   99.05150000   -18.26030000   -13.40000000
   99.05130000   -18.28130000   -13.60000000
   99.05120000   -18.30220000   -13.70000000
   99.05100000   -18.32320000   -15.90000000
   99.05080000   -18.34410000   -15.90000000
   99.05060000   -18.36500000   -17.00000000
   99.05040000   -18.38600000   -18.10000000
   99.05030000   -18.40690000   -16.30000000
   99.05010000   -18.42790000   -16.30000000
   99.04990000   -18.44880000   -16.40000000
   98.95180000   -18.47220000   -17.10000000
   98.92800000   -18.47330000   -16.10000000
   98.90410000   -18.47440000   -18.30000000
   98.88020000   -18.47550000   -20.30000000
   98.85630000   -18.47660000   -22.40000000
   98.89900000   -18.51790000   -45.00000000
   98.91350000   -18.52920000   -45.50000000
   98.92800000   -18.54060000   -46.10000000
   98.94250000   -18.55190000   -44.80000000
   98.95700000   -18.56330000   -42.30000000
   98.99120000   -18.57150000   -44.60000000
   99.00830000   -18.57560000   -42.80000000
   99.02540000   -18.57970000   -40.00000000
   99.04250000   -18.58380000   -36.10000000
   99.05950000   -18.58790000   -32.30000000
   99.07660000   -18.59210000   -29.40000000
   98.95830000   -18.62750000   -28.00000000
   98.94090000   -18.64250000   -29.90000000
   98.92350000   -18.65760000   -30.80000000
   98.90610000   -18.67260000   -31.50000000
   98.88870000   -18.68760000   -33.30000000
   98.87140000   -18.70260000   -34.30000000
   98.85400000   -18.71770000   -33.00000000
   98.83390000   -18.73530000   -37.30000000
   98.81390000   -18.75300000   -36.30000000
   98.79380000   -18.77070000   -34.10000000
   98.77370000   -18.78840000   -33.00000000
   98.75370000   -18.80600000   -28.90000000
   98.73360000   -18.82370000   -28.80000000
   98.71350000   -18.84140000   -26.80000000
   98.69390000   -18.85890000   -24.30000000
   98.67480000   -18.87620000   -26.30000000
   98.65570000   -18.89350000   -30.30000000
   98.63660000   -18.91080000   -32.30000000
   98.61750000   -18.92820000   -35.30000000
   98.59840000   -18.94550000   -37.30000000
   98.57920000   -18.96290000   -40.30000000
   98.56010000   -18.98020000   -45.30000000
   98.54100000   -18.99760000   -49.30000000
   98.52130000   -19.01470000   -53.50000000
   98.50120000   -19.03160000   -55.50000000
   98.48110000   -19.04860000   -57.50000000
   98.46100000   -19.06560000   -56.30000000
   98.44090000   -19.08250000   -55.30000000
   98.42080000   -19.09950000   -53.00000000
   98.40070000   -19.11650000   -51.00000000
   98.38060000   -19.13340000   -47.80000000
   98.36050000   -19.15040000   -43.60000000
   98.34040000   -19.16740000   -40.50000000
   98.32030000   -19.18430000   -35.30000000
   98.30080000   -19.20110000   -32.80000000
   98.28050000   -19.21860000   -32.50000000
   98.26020000   -19.23610000   -32.50000000
   98.23990000   -19.25360000   -34.50000000
   98.21970000   -19.27110000   -35.30000000
   98.19940000   -19.28860000   -37.30000000
   98.17910000   -19.30620000   -37.30000000
   98.15880000   -19.32370000   -38.30000000
   98.13850000   -19.34120000   -38.30000000
   98.11830000   -19.35870000   -38.30000000
   98.09800000   -19.37620000   -36.10000000
   98.07770000   -19.39370000   -35.10000000
   98.05740000   -19.41120000   -34.00000000
   98.03720000   -19.42870000   -34.00000000
   98.01690000   -19.44620000   -33.00000000
   97.99680000   -19.46370000   -29.40000000
   97.97750000   -19.48130000   -29.40000000
   97.95820000   -19.49900000   -30.40000000
   97.93890000   -19.51660000   -28.30000000
   97.91900000   -19.53490000   -29.90000000
   97.85910000   -19.58970000   -25.00000000
   97.83910000   -19.60800000   -26.00000000
   97.81910000   -19.62620000   -24.00000000
   97.79920000   -19.64450000   -24.00000000
   97.77860000   -19.66300000   -24.80000000
   97.75780000   -19.68160000   -24.80000000
   97.73710000   -19.70020000   -24.90000000
   97.71640000   -19.71880000   -23.90000000
   97.69560000   -19.73740000   -23.90000000
   97.67490000   -19.75600000   -22.90000000
   97.65410000   -19.77460000   -23.00000000
   97.63340000   -19.79320000   -23.00000000
   97.61270000   -19.81180000   -23.10000000
   97.59190000   -19.83040000   -25.30000000
   97.57120000   -19.84900000   -24.30000000
   97.55080000   -19.86730000   -22.30000000
   97.53040000   -19.88560000   -23.30000000
   97.51000000   -19.90390000   -25.40000000
   97.48950000   -19.92210000   -26.50000000
   97.46910000   -19.94040000   -26.50000000
   97.44870000   -19.95870000   -25.50000000
   97.42830000   -19.97700000   -27.60000000
   97.40790000   -19.99520000   -27.60000000
   97.38750000   -20.01350000   -28.80000000
   97.42670000   -20.09210000   -37.80000000
   97.44290000   -20.09810000   -36.10000000
   97.45910000   -20.10420000   -32.30000000
   97.47530000   -20.11030000   -33.80000000
   97.49150000   -20.11640000   -32.00000000
   97.50770000   -20.12240000   -29.30000000
   97.52390000   -20.12850000   -29.80000000
   97.54020000   -20.13460000   -29.00000000
   97.55640000   -20.14070000   -28.30000000
   97.57260000   -20.14670000   -28.80000000
   97.58880000   -20.15280000   -25.00000000
   97.60500000   -20.15890000   -24.30000000
   97.62120000   -20.16490000   -25.80000000
   97.63740000   -20.17100000   -29.10000000
   97.65360000   -20.17710000   -28.40000000
   97.66980000   -20.18320000   -28.80000000
   97.68760000   -20.18810000   -25.50000000
   97.70530000   -20.19300000   -23.80000000
   97.72240000   -20.19760000   -25.40000000
   97.73950000   -20.20230000   -27.80000000
   97.75670000   -20.20700000   -30.10000000
   97.77380000   -20.21170000   -30.30000000
   97.79090000   -20.21640000   -31.60000000
   97.80800000   -20.22100000   -31.90000000
   97.82510000   -20.22570000   -31.30000000
   97.84230000   -20.23040000   -32.50000000
   97.85940000   -20.23510000   -32.80000000
   97.87120000   -20.23800000   -35.30000000
   97.88300000   -20.24080000   -34.50000000
   97.89490000   -20.24370000   -34.60000000
   97.91170000   -20.24830000   -35.30000000
   97.92850000   -20.25280000   -38.60000000
   97.94530000   -20.25740000   -38.00000000
   97.96210000   -20.26200000   -40.30000000
   97.97910000   -20.26680000   -39.80000000
   97.99620000   -20.27160000   -42.10000000
   98.01330000   -20.27650000   -40.50000000
   98.03040000   -20.28140000   -39.60000000
   98.04750000   -20.28630000   -39.00000000
   98.06460000   -20.29120000   -40.30000000
   98.08160000   -20.29610000   -39.50000000
   98.09870000   -20.30090000   -40.80000000
   98.11580000   -20.30580000   -44.10000000
   98.13240000   -20.31010000   -42.50000000
   98.14900000   -20.31430000   -43.80000000
   98.16650000   -20.31860000   -41.30000000
   98.18430000   -20.32280000   -41.60000000
   98.20200000   -20.32710000   -40.80000000
   98.22070000   -20.33170000   -39.80000000
   98.23950000   -20.33630000   -40.00000000
   98.25840000   -20.34100000   -40.00000000
   98.27770000   -20.34630000   -39.30000000
   98.29700000   -20.35150000   -38.50000000
   98.31620000   -20.35670000   -38.30000000
   98.33490000   -20.36200000   -39.60000000
   98.35360000   -20.36740000   -39.00000000
   98.37230000   -20.37270000   -37.10000000
   98.39090000   -20.37820000   -37.00000000
   98.40940000   -20.38380000   -37.30000000
   98.42790000   -20.38940000   -36.50000000
   98.44640000   -20.39490000   -35.80000000
   98.46460000   -20.40070000   -37.50000000
   98.48260000   -20.40660000   -37.80000000
   98.50050000   -20.41250000   -37.30000000
   98.51850000   -20.41830000   -39.50000000
   98.53640000   -20.42420000   -41.00000000
   98.55450000   -20.43010000   -41.00000000
   98.57210000   -20.43610000   -48.00000000
   98.58910000   -20.44220000   -49.30000000
   98.60610000   -20.44830000   -50.80000000
   98.62320000   -20.45430000   -52.10000000
   98.64060000   -20.46130000   -50.50000000
   98.65810000   -20.46830000   -51.00000000
   98.67550000   -20.47530000   -50.30000000
   98.69300000   -20.48230000   -47.60000000
   98.71050000   -20.48920000   -47.00000000
   98.72790000   -20.49620000   -44.30000000
   98.74540000   -20.50320000   -45.80000000
   98.76280000   -20.51020000   -49.30000000
   98.78030000   -20.51720000   -50.80000000
   98.79780000   -20.52410000   -54.00000000
   98.81460000   -20.53090000   -57.00000000
   98.83150000   -20.53770000   -55.30000000
   98.84830000   -20.54450000   -54.80000000
   98.86520000   -20.55120000   -53.00000000
   98.88200000   -20.55800000   -51.50000000
   98.89890000   -20.56480000   -50.80000000
   98.91580000   -20.57160000   -50.10000000
   98.93260000   -20.57830000   -48.50000000
   98.94950000   -20.58510000   -47.00000000
   98.96630000   -20.59190000   -46.30000000
   98.98320000   -20.59860000   -45.60000000
   99.00000000   -20.60540000   -43.00000000
   98.90220000   -20.67780000   -48.10000000
   98.87950000   -20.69080000   -50.00000000
   98.85670000   -20.70380000   -53.80000000
   98.83400000   -20.71680000   -53.50000000
   98.81130000   -20.72980000   -49.50000000
   98.78880000   -20.74280000   -49.30000000
   98.76640000   -20.75580000   -51.10000000
   98.74390000   -20.76890000   -51.80000000
   98.72140000   -20.78190000   -52.60000000
   98.69890000   -20.79490000   -52.50000000
   98.67640000   -20.80800000   -49.10000000
   98.65390000   -20.82100000   -45.80000000
   98.63140000   -20.83410000   -41.50000000
   98.60900000   -20.84640000   -35.50000000
   98.58670000   -20.85830000   -31.00000000
   98.56280000   -20.87010000   -34.30000000
   98.53770000   -20.88180000   -34.00000000
   98.51260000   -20.89360000   -33.80000000
   98.48750000   -20.90530000   -34.50000000
   98.46240000   -20.91710000   -35.10000000
   98.43730000   -20.92890000   -37.80000000
   98.41220000   -20.94060000   -39.60000000
   98.38790000   -20.95220000   -36.50000000
   98.36490000   -20.96360000   -37.10000000
   98.34190000   -20.97500000   -37.80000000
   98.31880000   -20.98640000   -38.50000000
   98.29580000   -20.99770000   -41.30000000
   98.27270000   -21.00910000   -40.80000000
   98.24970000   -21.02050000   -41.50000000
   98.09260000   -20.93530000   -29.10000000
   98.07000000   -20.92370000   -29.40000000
   98.04750000   -20.91220000   -30.80000000
   98.02500000   -20.90070000   -30.10000000
   98.00250000   -20.88910000   -29.40000000
   97.95670000   -20.87320000   -28.50000000
   97.93380000   -20.86570000   -28.10000000
   97.91090000   -20.85820000   -28.60000000
   97.88800000   -20.85060000   -28.30000000
   97.86510000   -20.84310000   -24.80000000
   97.84220000   -20.83550000   -24.30000000
   97.81930000   -20.82800000   -22.80000000
   97.79640000   -20.82040000   -24.30000000
   97.77350000   -20.81290000   -25.90000000
   97.78910000   -20.83040000   -43.30000000
   97.80570000   -20.83830000   -44.80000000
   97.82220000   -20.84620000   -43.30000000
   97.83880000   -20.85420000   -40.60000000
   97.85530000   -20.86210000   -41.10000000
   97.87180000   -20.87000000   -44.80000000
   97.88840000   -20.87800000   -46.30000000
   97.90490000   -20.88590000   -47.80000000
   97.92150000   -20.89380000   -48.10000000
   97.93800000   -20.90180000   -49.60000000
   97.95460000   -20.90970000   -48.10000000
   97.97110000   -20.91760000   -48.50000000
   97.98770000   -20.92560000   -48.00000000
   98.00540000   -20.93260000   -46.30000000
   98.02430000   -20.93970000   -44.30000000
   98.04330000   -20.94680000   -44.80000000
   98.06220000   -20.95400000   -45.10000000
   98.08120000   -20.96110000   -45.50000000
   98.10010000   -20.96820000   -46.00000000
   98.11910000   -20.97530000   -47.50000000
   98.13800000   -20.98240000   -46.80000000
   98.15700000   -20.98960000   -47.30000000
   97.92870000   -20.82300000   -42.00000000
   97.95000000   -20.80880000   -42.00000000
   97.97130000   -20.79470000   -43.30000000
   98.03870000   -20.75560000   -35.80000000
   98.06120000   -20.74260000   -35.00000000
   98.08370000   -20.72950000   -35.30000000
   98.10610000   -20.71650000   -37.50000000
   98.12860000   -20.70350000   -41.00000000
   98.15110000   -20.69050000   -42.10000000
   98.17350000   -20.67740000   -42.50000000
   98.19600000   -20.66440000   -41.60000000
   98.21850000   -20.65140000   -43.00000000
   98.24100000   -20.63840000   -44.10000000
   98.26430000   -20.62490000   -42.30000000
   98.28760000   -20.61140000   -41.50000000
   98.31090000   -20.59790000   -41.60000000
   98.33420000   -20.58440000   -39.80000000
   98.35750000   -20.57090000   -41.00000000
   98.38080000   -20.55750000   -39.30000000
   98.40410000   -20.54400000   -38.50000000
   98.42740000   -20.53050000   -36.60000000
   98.45070000   -20.51700000   -35.80000000
   98.47400000   -20.50350000   -35.00000000
   98.49730000   -20.49010000   -34.30000000
   98.52060000   -20.47660000   -35.50000000
   98.54390000   -20.46310000   -35.60000000
   98.56670000   -20.44980000   -43.80000000
   98.58880000   -20.43670000   -45.00000000
   98.61100000   -20.42370000   -48.30000000
   98.63310000   -20.41060000   -48.50000000
   98.65520000   -20.39760000   -48.80000000
   98.67760000   -20.38440000   -45.30000000
   98.70000000   -20.37120000   -44.50000000
   98.72320000   -20.35870000   -42.80000000
   98.74640000   -20.34610000   -46.30000000
   98.76960000   -20.33360000   -49.50000000
   98.79290000   -20.32110000   -49.80000000
   98.81610000   -20.30860000   -49.10000000
   98.83930000   -20.29610000   -48.50000000
   98.86250000   -20.28360000   -48.60000000
   98.88640000   -20.27270000   -45.30000000
   98.91020000   -20.26200000   -44.00000000
   98.93400000   -20.25130000   -43.50000000
   98.95770000   -20.24070000   -39.80000000
   98.98140000   -20.23010000   -37.10000000
   99.00510000   -20.21950000   -36.50000000
   99.02890000   -20.20890000   -35.80000000
   99.05260000   -20.19830000   -36.30000000
   99.07630000   -20.18770000   -36.60000000
   99.10000000   -20.17710000   -38.10000000
   99.12380000   -20.16640000   -39.50000000
   99.14750000   -20.15580000   -39.00000000
   99.16970000   -20.14500000   -40.80000000
   99.19200000   -20.13410000   -40.00000000
   99.21430000   -20.12320000   -36.30000000
   99.23650000   -20.11230000   -33.60000000
   99.25880000   -20.10150000   -33.00000000
   99.28100000   -20.09060000   -34.50000000
   99.30360000   -20.07960000   -34.80000000
   99.32670000   -20.06860000   -36.30000000
   99.34980000   -20.05760000   -37.60000000
   99.37290000   -20.04660000   -37.00000000
   99.39600000   -20.03550000   -35.30000000
   99.41900000   -20.02450000   -35.80000000
   99.44210000   -20.01350000   -36.10000000
   99.46520000   -20.00250000   -40.60000000
   99.48830000   -19.99140000   -41.00000000
   99.51140000   -19.98040000   -39.30000000
   99.53450000   -19.96940000   -37.60000000
   99.55750000   -19.95840000   -34.00000000
   99.57870000   -19.95050000   -38.30000000
   99.62390000   -19.99900000   -38.50000000
   99.63880000   -20.01590000   -37.30000000
   99.65360000   -20.03290000   -35.30000000
   99.66850000   -20.04980000   -36.30000000
   99.68340000   -20.06680000   -37.30000000
   99.69830000   -20.08370000   -37.10000000
   99.71320000   -20.10070000   -35.10000000
   99.72800000   -20.11760000   -34.00000000
   99.74290000   -20.13460000   -31.90000000
   99.75780000   -20.15150000   -31.90000000
   99.77270000   -20.16850000   -33.00000000
   99.78760000   -20.18540000   -31.80000000
   99.80240000   -20.20240000   -30.80000000
   99.81730000   -20.21930000   -29.80000000
   99.88030000   -20.31840000   -38.60000000
   99.89270000   -20.33620000   -39.80000000
   99.90500000   -20.35390000   -39.80000000
   99.91730000   -20.37160000   -41.80000000
   99.92970000   -20.38930000   -41.80000000
   99.94200000   -20.40700000   -40.80000000
   99.95430000   -20.42470000   -39.80000000
   99.96670000   -20.44240000   -38.80000000
   99.97900000   -20.46020000   -35.80000000
   99.87770000   -20.54100000   -15.90000000
   99.85740000   -20.55720000   -19.80000000
   99.83720000   -20.57330000   -24.80000000
   99.81690000   -20.58950000   -25.80000000
   99.79670000   -20.60570000   -26.80000000
   99.77290000   -20.61860000   -35.60000000
   99.74920000   -20.63150000   -38.50000000
   99.72550000   -20.64440000   -39.30000000
   99.70170000   -20.65210000   -39.30000000
   99.65370000   -20.62600000   -39.80000000
   99.62970000   -20.61300000   -39.00000000
   99.60570000   -20.59990000   -37.30000000
   99.58170000   -20.58680000   -35.50000000
   99.55770000   -20.57380000   -34.80000000
   99.53380000   -20.56040000   -33.00000000
   99.51020000   -20.54550000   -33.10000000
   99.48650000   -20.53060000   -33.30000000
   99.46260000   -20.51570000   -30.30000000
   99.43860000   -20.50070000   -29.40000000
   99.41460000   -20.48570000   -27.50000000
   99.39060000   -20.47080000   -23.60000000
   99.36670000   -20.45580000   -20.60000000
   99.34270000   -20.44080000   -19.80000000
   99.31870000   -20.42580000   -19.90000000
   99.29540000   -20.41080000   -22.40000000
   99.27160000   -20.39530000   -27.00000000
   99.24780000   -20.37990000   -30.30000000
   99.22390000   -20.36450000   -32.30000000
   99.20010000   -20.34900000   -34.50000000
   99.17630000   -20.33360000   -33.60000000
   99.15250000   -20.31820000   -33.80000000
   99.12870000   -20.30270000   -33.80000000
   99.10480000   -20.28730000   -36.00000000
   99.08100000   -20.27190000   -34.10000000
   99.05720000   -20.25650000   -33.30000000
   99.03340000   -20.24100000   -32.30000000
   99.00960000   -20.22560000   -32.30000000
   98.98540000   -20.20990000   -33.30000000
   98.96130000   -20.19430000   -33.30000000
   98.93710000   -20.17860000   -34.50000000
   98.91300000   -20.16300000   -35.60000000
   98.88880000   -20.14730000   -37.80000000
   98.86530000   -20.13190000   -39.30000000
   98.84190000   -20.11650000   -41.30000000
   98.81860000   -20.10120000   -40.50000000
   98.79520000   -20.08580000   -41.60000000
   98.77180000   -20.07040000   -40.80000000
   98.74850000   -20.05510000   -43.00000000
   98.72510000   -20.03970000   -42.00000000
   98.70170000   -20.02430000   -41.10000000
   98.67840000   -20.00900000   -40.30000000
   98.65500000   -19.99360000   -39.30000000
   98.63150000   -19.97820000   -43.00000000
   98.60760000   -19.96240000   -44.10000000
   98.58360000   -19.94670000   -46.30000000
   98.55970000   -19.93100000   -46.50000000
   98.53570000   -19.91520000   -44.50000000
   98.51180000   -19.89950000   -42.50000000
   98.48780000   -19.88380000   -39.60000000
   98.46390000   -19.86800000   -38.80000000
   98.43990000   -19.85210000   -33.80000000
   98.41590000   -19.83620000   -33.00000000
   98.39200000   -19.82040000   -31.00000000
   98.36800000   -19.80450000   -30.10000000
   98.34400000   -19.78860000   -29.30000000
   98.32010000   -19.77280000   -28.30000000
   98.29610000   -19.75690000   -29.40000000
   98.27210000   -19.74100000   -30.50000000
   98.24870000   -19.72450000   -26.90000000
   98.22550000   -19.70780000   -28.00000000
   98.20170000   -19.69130000   -31.30000000
   98.17760000   -19.67470000   -33.30000000
   98.15350000   -19.65820000   -33.50000000
   98.12930000   -19.64170000   -33.50000000
   98.10620000   -19.62450000   -31.10000000
   98.08310000   -19.60740000   -30.10000000
   98.06000000   -19.59030000   -30.30000000
   98.03690000   -19.57310000   -28.30000000
   98.01380000   -19.55600000   -26.30000000
   97.98910000   -19.54000000   -28.30000000
   97.96430000   -19.52400000   -27.40000000
   97.93960000   -19.50790000   -28.50000000
   97.91480000   -19.49190000   -27.60000000
   97.89010000   -19.47590000   -25.80000000
   97.86610000   -19.45950000   -22.80000000
   97.84270000   -19.44290000   -21.80000000
   97.81920000   -19.42630000   -20.80000000
   97.79580000   -19.40970000   -19.90000000
   97.77240000   -19.39300000   -18.90000000
   97.74890000   -19.37640000   -18.00000000
   97.72550000   -19.35980000   -18.10000000
   97.70240000   -19.34340000   -17.30000000
   97.67820000   -19.32740000   -21.30000000
   97.65360000   -19.31130000   -21.30000000
   97.62900000   -19.29530000   -21.40000000
   97.60450000   -19.27930000   -20.50000000
   97.57990000   -19.26330000   -19.60000000
   97.55530000   -19.24730000   -19.80000000
   97.53080000   -19.23130000   -17.80000000
   97.50620000   -19.21530000   -18.00000000
   97.48160000   -19.19930000   -18.10000000
   97.45710000   -19.18330000   -20.30000000
   97.43250000   -19.16730000   -18.40000000
   97.40790000   -19.15120000   -17.50000000
   97.38330000   -19.13520000   -17.60000000
   97.35880000   -19.11920000   -15.80000000
   97.33420000   -19.10320000   -15.90000000
   97.30960000   -19.08720000   -17.00000000
   97.28510000   -19.07120000   -16.10000000
   97.26010000   -19.05500000   -12.90000000
   97.15010000   -18.99620000   -18.80000000
   97.12570000   -18.97990000   -18.90000000
   97.10130000   -18.96360000   -18.00000000
   97.07700000   -18.94730000   -19.10000000
   97.05260000   -18.93110000   -18.30000000
   97.02830000   -18.91480000   -17.30000000
   97.00390000   -18.89850000   -16.40000000
   96.97950000   -18.88230000   -17.60000000
   96.95520000   -18.86600000   -19.80000000
   96.93140000   -18.85030000   -22.60000000
   96.90760000   -18.83460000   -25.80000000
   96.88390000   -18.81880000   -26.00000000
   96.86010000   -18.80310000   -30.30000000
   96.83640000   -18.78740000   -29.40000000
   96.81260000   -18.77170000   -27.50000000
   96.78890000   -18.75600000   -25.60000000
   96.76510000   -18.74030000   -22.80000000
   96.74140000   -18.72450000   -19.80000000
   96.78880000   -18.84710000   -34.60000000
   96.79670000   -18.87000000   -36.00000000
   96.80460000   -18.89290000   -37.10000000
   96.81540000   -18.91560000   -29.50000000
   96.82700000   -18.93820000   -30.80000000
   96.83850000   -18.96080000   -27.90000000
   96.85010000   -18.98350000   -27.10000000
   96.86170000   -19.00610000   -26.30000000
   96.77980000   -18.97670000   -20.40000000
   96.75340000   -18.96380000   -19.80000000
   96.72700000   -18.95100000   -16.90000000
   96.70070000   -18.93770000   -13.90000000
   96.67450000   -18.92450000   -14.20000000
   96.64820000   -18.91130000   -14.40000000
   96.62200000   -18.89800000   -16.80000000
   96.59570000   -18.88480000   -16.00000000
   96.56950000   -18.87150000   -15.40000000
   96.54320000   -18.85830000   -14.60000000
   96.51700000   -18.84500000   -15.90000000
   96.49070000   -18.83180000   -15.20000000
   96.46450000   -18.81850000   -18.50000000
   96.43820000   -18.80530000   -18.80000000
   96.41180000   -18.79190000   -20.60000000
   96.38540000   -18.77850000   -20.90000000
   96.35890000   -18.76520000   -21.10000000
   96.30870000   -18.73330000   -26.40000000
   96.28360000   -18.71730000   -27.60000000
   96.25850000   -18.70130000   -26.80000000
   96.23340000   -18.68540000   -26.90000000
   96.20830000   -18.66940000   -28.00000000
   96.18320000   -18.65340000   -28.30000000
   96.15810000   -18.63750000   -32.50000000
   96.13300000   -18.62150000   -33.60000000
   96.10790000   -18.60550000   -35.80000000
   96.08380000   -18.58930000   -35.00000000
   96.06030000   -18.57300000   -36.10000000
   96.03690000   -18.55660000   -36.30000000
   96.01350000   -18.54020000   -37.50000000
   95.99010000   -18.52380000   -36.50000000
   95.96670000   -18.50740000   -36.80000000
   95.94330000   -18.49100000   -35.80000000
   95.91980000   -18.47470000   -35.00000000
   95.89690000   -18.45800000   -31.90000000
   95.87390000   -18.44140000   -31.00000000
   95.85100000   -18.42480000   -31.10000000
   95.82800000   -18.40810000   -30.30000000
   95.80510000   -18.39150000   -29.30000000
   95.78210000   -18.37490000   -29.50000000
   95.75850000   -18.35930000   -28.30000000
   95.73490000   -18.34370000   -28.40000000
   95.71180000   -18.32790000   -27.80000000
   95.68900000   -18.31180000   -27.80000000
   95.66570000   -18.29610000   -31.10000000
   95.64170000   -18.28080000   -30.30000000
   95.61770000   -18.26560000   -29.40000000
   95.59360000   -18.25030000   -27.60000000
   95.56960000   -18.23510000   -24.80000000
   95.54560000   -18.21980000   -22.90000000
   95.52150000   -18.20460000   -22.10000000
   95.49750000   -18.18940000   -20.30000000
   95.47350000   -18.17410000   -19.40000000
   95.44950000   -18.15890000   -19.80000000
   95.42540000   -18.14360000   -18.80000000
   95.40140000   -18.12840000   -18.00000000
   95.37740000   -18.11310000   -18.30000000
   95.35330000   -18.09790000   -19.50000000
   95.32920000   -18.08250000   -21.30000000
   95.30470000   -18.06720000   -23.90000000
   95.28000000   -18.05180000   -26.10000000
   95.25520000   -18.03640000   -27.40000000
   95.23050000   -18.02100000   -27.60000000
   95.20570000   -18.00560000   -30.80000000
   95.18090000   -17.99020000   -33.10000000
   95.15620000   -17.97480000   -35.30000000
   95.13140000   -17.95940000   -36.60000000
   95.10660000   -17.94400000   -37.80000000
   95.08190000   -17.92860000   -40.10000000
   95.05710000   -17.91320000   -42.30000000
   95.03230000   -17.89780000   -43.50000000
   95.00760000   -17.88240000   -45.80000000
   94.98280000   -17.86700000   -46.00000000
   94.95800000   -17.85160000   -47.30000000
   94.93330000   -17.83620000   -51.50000000
   94.90850000   -17.82080000   -54.80000000
   94.88410000   -17.80570000   -56.30000000
   94.85980000   -17.79050000   -59.60000000
   94.83540000   -17.77530000   -57.80000000
   94.81100000   -17.76020000   -59.00000000
   94.78660000   -17.74500000   -60.30000000
   94.76230000   -17.72980000   -59.50000000
   94.73790000   -17.71460000   -60.80000000
   94.71350000   -17.69950000   -60.00000000
   94.68910000   -17.68430000   -59.10000000
   94.66480000   -17.66910000   -59.50000000
   94.64040000   -17.65400000   -59.60000000
   94.61600000   -17.63880000   -58.80000000
   94.59170000   -17.62360000   -55.00000000
   94.56730000   -17.60850000   -50.10000000
   94.54290000   -17.59330000   -45.30000000
   94.51850000   -17.57810000   -42.50000000
   94.49420000   -17.56300000   -36.50000000
