   63.29860000    13.08090000   -21.10000000
   63.34220000    13.03140000   -29.50000000
   63.35630000    13.01600000   -29.90000000
   63.37050000    13.00060000   -29.30000000
   63.38460000    12.98520000   -29.60000000
   63.39870000    12.96980000   -30.00000000
   63.41290000    12.95440000   -29.40000000
   63.42700000    12.93900000   -28.80000000
   63.44110000    12.92360000   -28.30000000
   63.45520000    12.90820000   -28.60000000
   63.46940000    12.89280000   -29.00000000
   63.48350000    12.87740000   -27.40000000
   63.49760000    12.86200000   -27.80000000
   63.51180000    12.84660000   -27.30000000
   63.52590000    12.83120000   -26.60000000
   63.54000000    12.81580000   -27.00000000
   63.55420000    12.80040000   -28.30000000
   63.56830000    12.78500000   -29.80000000
   63.59670000    12.75610000   -31.30000000
   63.61090000    12.74160000   -30.80000000
   63.62510000    12.72710000   -30.10000000
   63.63940000    12.71260000   -30.60000000
   63.65360000    12.69810000   -30.00000000
   63.66780000    12.68360000   -30.40000000
   63.68200000    12.66910000   -30.90000000
   63.69620000    12.65460000   -31.30000000
   63.71040000    12.64010000   -31.80000000
   63.72470000    12.62560000   -32.30000000
   63.73890000    12.61110000   -31.60000000
   63.75310000    12.59660000   -33.00000000
   63.76730000    12.58210000   -33.50000000
   63.78150000    12.56760000   -33.00000000
   63.79570000    12.55310000   -32.30000000
   63.81000000    12.53860000   -32.80000000
   63.82450000    12.52410000   -28.80000000
   63.84050000    12.50950000   -29.10000000
   63.85640000    12.49480000   -29.60000000
   63.87240000    12.48020000   -30.00000000
   63.88830000    12.46560000   -30.40000000
   63.90430000    12.45100000   -29.90000000
   63.92020000    12.43630000   -30.30000000
   63.93610000    12.42170000   -29.80000000
   63.95210000    12.40710000   -29.30000000
   63.96830000    12.39240000   -28.80000000
   63.98500000    12.37760000   -30.30000000
   64.00170000    12.36290000   -31.60000000
   64.01830000    12.34830000   -32.00000000
   64.03500000    12.33370000   -31.50000000
   64.05170000    12.31920000   -30.90000000
   64.06830000    12.30460000   -30.40000000
   64.08500000    12.29000000   -30.80000000
   64.10170000    12.27540000   -31.30000000
   64.11830000    12.26080000   -31.80000000
   64.13540000    12.24620000   -30.50000000
   64.15270000    12.23140000   -29.90000000
   64.17000000    12.21670000   -30.30000000
   64.18690000    12.20230000   -31.90000000
   64.20380000    12.18800000   -31.30000000
   64.22060000    12.17370000   -30.80000000
   64.23750000    12.15940000   -31.30000000
   64.25440000    12.14510000   -30.80000000
   64.27130000    12.13080000   -30.30000000
   64.28820000    12.11650000   -30.80000000
   64.30490000    12.10260000   -32.00000000
   64.32100000    12.09030000   -31.60000000
   64.33720000    12.07810000   -31.10000000
   64.35330000    12.06590000   -30.80000000
   64.36940000    12.05370000   -30.30000000
   64.38560000    12.04150000   -30.80000000
   64.40170000    12.02930000   -31.30000000
   64.41780000    12.01710000   -31.90000000
   64.49280000    12.06530000   -35.80000000
   64.63260000    12.16730000   -31.50000000
   64.65180000    12.17970000   -31.90000000
   64.67110000    12.19200000   -32.50000000
   64.69030000    12.20440000   -31.80000000
   64.70950000    12.21670000   -30.30000000
   64.72870000    12.22900000   -30.80000000
   64.74800000    12.24140000   -31.30000000
   64.76720000    12.25370000   -32.80000000
   64.78640000    12.26610000   -33.10000000
   64.80560000    12.27840000   -33.60000000
   64.82580000    12.29120000   -31.00000000
   64.84670000    12.30430000   -31.40000000
   64.86750000    12.31740000   -31.90000000
   64.88840000    12.33060000   -32.50000000
   64.90920000    12.34370000   -31.90000000
   64.93010000    12.35680000   -32.50000000
   64.95090000    12.36990000   -33.00000000
   64.97180000    12.38310000   -32.50000000
   64.99260000    12.39620000   -31.90000000
   65.01350000    12.40930000   -31.40000000
   65.03430000    12.42240000   -30.00000000
   65.05520000    12.43550000   -28.50000000
   65.07440000    12.44780000   -32.10000000
   65.09330000    12.45980000   -31.60000000
   65.11220000    12.47180000   -32.00000000
   65.16390000    12.50490000   -31.80000000
   65.18030000    12.51550000   -32.10000000
   65.19670000    12.52600000   -31.50000000
   65.21320000    12.53660000   -30.10000000
   65.22990000    12.54700000   -30.50000000
   65.24660000    12.55750000   -30.90000000
   65.26330000    12.56740000   -31.50000000
   65.28000000    12.57700000   -33.00000000
   65.29670000    12.58650000   -33.30000000
   65.31330000    12.59610000   -33.60000000
   65.33000000    12.60570000   -33.00000000
   65.34670000    12.61510000   -33.30000000
   65.36330000    12.62420000   -32.80000000
   65.38000000    12.63320000   -32.10000000
   65.39630000    12.64230000   -32.50000000
   65.41260000    12.65150000   -33.00000000
   65.42880000    12.66070000   -32.30000000
   65.44510000    12.66980000   -32.60000000
   65.46130000    12.67900000   -33.00000000
   65.47760000    12.68820000   -33.30000000
   65.49380000    12.69730000   -33.60000000
   65.51010000    12.70650000   -34.00000000
   65.52630000    12.71510000   -34.50000000
   65.54250000    12.72360000   -33.80000000
   65.55870000    12.73200000   -33.30000000
   65.57490000    12.74050000   -32.50000000
   65.59100000    12.74890000   -32.80000000
   65.60720000    12.75740000   -32.30000000
   65.66540000    12.78840000   -30.80000000
   65.68530000    12.79900000   -31.30000000
   65.70520000    12.80960000   -30.80000000
   65.72500000    12.82020000   -31.10000000
   65.74490000    12.83080000   -30.50000000
   65.76480000    12.84140000   -30.90000000
   65.78470000    12.85210000   -30.40000000
   65.80460000    12.86270000   -30.80000000
   65.82370000    12.87290000   -32.00000000
   65.84290000    12.88310000   -31.40000000
   65.86210000    12.89330000   -30.80000000
   65.88130000    12.90350000   -31.30000000
   65.90030000    12.91370000   -32.80000000
   65.91870000    12.92370000   -32.10000000
   65.93710000    12.93380000   -31.50000000
   65.95550000    12.94390000   -30.90000000
   65.97390000    12.95390000   -31.30000000
   65.99230000    12.96400000   -30.80000000
   66.01070000    12.97410000   -31.10000000
   66.02910000    12.98410000   -31.50000000
   66.04750000    12.99420000   -31.90000000
   66.06590000    13.00420000   -32.30000000
   66.08430000    13.01430000   -32.80000000
   66.10290000    13.02490000   -32.50000000
   66.12160000    13.03570000   -33.00000000
   66.14020000    13.04660000   -34.30000000
   66.15890000    13.05740000   -34.80000000
   66.17760000    13.06830000   -35.10000000
   66.19630000    13.07920000   -35.60000000
   66.21500000    13.09000000   -35.00000000
   66.23360000    13.10090000   -34.50000000
   66.25230000    13.11180000   -34.00000000
   66.27100000    13.12260000   -34.30000000
   66.28970000    13.13350000   -34.80000000
   66.30830000    13.14440000   -35.30000000
   66.32700000    13.15520000   -36.60000000
   66.34570000    13.16610000   -37.10000000
   66.36440000    13.17700000   -37.50000000
   66.38310000    13.18780000   -38.00000000
   66.40170000    13.19870000   -38.50000000
   66.32180000    13.14710000   -36.30000000
   66.42620000    13.21140000   -37.00000000
   66.44400000    13.22170000   -37.50000000
   66.46200000    13.23210000   -36.80000000
   66.48030000    13.24260000   -37.30000000
   66.49850000    13.25310000   -37.80000000
   66.51680000    13.26360000   -37.10000000
   66.53510000    13.27410000   -37.50000000
   66.55330000    13.28460000   -37.00000000
   66.57160000    13.29510000   -35.50000000
   66.58990000    13.30560000   -34.80000000
   66.60810000    13.31610000   -34.30000000
   66.62640000    13.32660000   -33.80000000
   66.64470000    13.33710000   -34.10000000
   66.66290000    13.34760000   -32.60000000
   66.68120000    13.35810000   -32.00000000
   66.69950000    13.36860000   -32.50000000
   66.71780000    13.37910000   -31.90000000
   66.73600000    13.38960000   -31.30000000
   66.75430000    13.40000000   -30.80000000
   66.77260000    13.41050000   -30.30000000
   66.79080000    13.42100000   -29.60000000
   66.80910000    13.43150000   -30.10000000
   66.82740000    13.44200000   -30.50000000
   66.84560000    13.45280000   -30.30000000
   66.86380000    13.46380000   -28.80000000
   66.88200000    13.47490000   -28.30000000
   66.90020000    13.48590000   -27.60000000
   66.91830000    13.49700000   -27.10000000
   66.93650000    13.50810000   -26.60000000
   66.95470000    13.51910000   -26.00000000
   66.97290000    13.53020000   -26.50000000
   66.99110000    13.54120000   -25.90000000
   67.00920000    13.55230000   -26.40000000
   67.02740000    13.56340000   -26.80000000
   67.04590000    13.57460000   -24.80000000
   67.06470000    13.58600000   -25.30000000
   67.08350000    13.59740000   -24.80000000
   67.10240000    13.60880000   -25.10000000
   67.12120000    13.62030000   -25.60000000
   67.14000000    13.63170000   -26.10000000
   67.15890000    13.64310000   -26.50000000
   67.17770000    13.65450000   -27.00000000
   67.19650000    13.66600000   -29.50000000
   67.21530000    13.67740000   -29.90000000
   67.26490000    13.70760000   -34.10000000
   67.28030000    13.71700000   -35.50000000
   67.29570000    13.72640000   -36.00000000
   67.31100000    13.73580000   -36.30000000
   67.32680000    13.74510000   -32.30000000
   67.34380000    13.75410000   -32.80000000
   67.36090000    13.76310000   -33.10000000
   67.37800000    13.77210000   -32.50000000
   67.39510000    13.78100000   -32.80000000
   67.41220000    13.79000000   -33.30000000
   67.42920000    13.79900000   -33.60000000
   67.44630000    13.80800000   -34.00000000
   67.46340000    13.81690000   -33.30000000
   67.48050000    13.82590000   -30.80000000
   67.49760000    13.83490000   -30.10000000
   67.51470000    13.84390000   -29.50000000
   67.53170000    13.85290000   -28.90000000
   67.54880000    13.86180000   -29.30000000
   67.56590000    13.87080000   -30.60000000
   67.58300000    13.87980000   -31.00000000
   67.62380000    13.90160000   -30.00000000
   67.64440000    13.91260000   -30.50000000
   67.66490000    13.92360000   -29.90000000
   67.68550000    13.93460000   -30.40000000
   67.70610000    13.94570000   -29.90000000
   67.72670000    13.95670000   -30.30000000
   67.74620000    13.96720000   -32.50000000
   67.76580000    13.97780000   -31.90000000
   67.78530000    13.98830000   -32.30000000
   67.80490000    13.99880000   -31.80000000
   67.82450000    14.00940000   -32.30000000
   67.84400000    14.01990000   -31.80000000
   67.86360000    14.03050000   -31.10000000
   67.88310000    14.04100000   -29.60000000
   67.90270000    14.05160000   -29.10000000
   67.92230000    14.06220000   -27.90000000
   67.94210000    14.07300000   -28.40000000
   67.96200000    14.08380000   -28.80000000
   67.98180000    14.09470000   -29.30000000
   68.00160000    14.10550000   -29.80000000
   68.02150000    14.11640000   -31.30000000
   68.04130000    14.12720000   -31.60000000
   68.06110000    14.13800000   -32.10000000
   68.08100000    14.14890000   -31.60000000
   68.10080000    14.15970000   -32.00000000
   68.12060000    14.17060000   -30.50000000
   68.14040000    14.18140000   -29.00000000
   68.16030000    14.19220000   -29.50000000
   68.18010000    14.20310000   -29.00000000
   68.20000000    14.21390000   -29.50000000
   68.21980000    14.22480000   -28.90000000
   68.23970000    14.23560000   -29.40000000
   68.25950000    14.24650000   -29.90000000
   68.27930000    14.25730000   -30.30000000
   68.29920000    14.26810000   -29.80000000
   68.31900000    14.27900000   -29.30000000
   68.33890000    14.28980000   -29.80000000
   68.35870000    14.30070000   -30.30000000
   68.37820000    14.31170000   -32.50000000
   68.39740000    14.32300000   -32.80000000
   68.41660000    14.33420000   -33.30000000
   68.43580000    14.34540000   -33.80000000
   68.45500000    14.35670000   -33.30000000
   68.47330000    14.36770000   -35.30000000
   68.49160000    14.37870000   -35.80000000
   68.50980000    14.38970000   -35.10000000
   68.52810000    14.40080000   -34.60000000
   68.54640000    14.41180000   -36.10000000
   68.56470000    14.42280000   -37.60000000
   68.58290000    14.43380000   -38.00000000
   68.60120000    14.44490000   -37.50000000
   68.61950000    14.45590000   -38.00000000
   68.63780000    14.46690000   -38.50000000
   68.65610000    14.47790000   -39.00000000
   68.78780000    14.56160000   -40.00000000
   68.80680000    14.57300000   -40.50000000
   68.82580000    14.58440000   -41.00000000
   68.84480000    14.59590000   -41.50000000
   68.86380000    14.60730000   -42.00000000
   68.88280000    14.61870000   -42.50000000
   68.90180000    14.63020000   -43.00000000
   68.92080000    14.64160000   -44.50000000
   68.93980000    14.65300000   -45.00000000
   68.95880000    14.66450000   -46.50000000
   68.97770000    14.67590000   -48.00000000
   68.99670000    14.68730000   -48.50000000
   69.01570000    14.69880000   -49.00000000
   69.03500000    14.71030000   -47.50000000
   69.05440000    14.72190000   -48.00000000
   69.07380000    14.73360000   -49.50000000
   69.09320000    14.74520000   -51.00000000
   69.11260000    14.75680000   -51.50000000
   69.13210000    14.76840000   -50.00000000
   69.15150000    14.78010000   -50.50000000
   69.17090000    14.79170000   -51.00000000
   69.18960000    14.80290000   -52.30000000
   69.23490000    14.83020000   -53.30000000
   69.24940000    14.83900000   -52.80000000
   69.26390000    14.84780000   -52.10000000
   69.27840000    14.85660000   -51.50000000
   69.29290000    14.86530000   -51.00000000
   69.30750000    14.87410000   -50.30000000
   69.32200000    14.88290000   -49.80000000
   69.33650000    14.89170000   -50.10000000
   69.35100000    14.90040000   -49.50000000
   69.36550000    14.90920000   -50.00000000
   69.38010000    14.91800000   -50.30000000
   69.39480000    14.92700000   -47.10000000
   69.41040000    14.93710000   -46.60000000
   69.42590000    14.94720000   -46.00000000
   69.44150000    14.95720000   -46.50000000
   69.45710000    14.96730000   -47.00000000
   69.51390000    15.00330000   -41.00000000
   69.53400000    15.01610000   -40.60000000
   69.55420000    15.02880000   -40.10000000
   69.57340000    15.04100000   -41.00000000
   69.59220000    15.05280000   -43.60000000
   69.61030000    15.06390000   -44.10000000
   69.62830000    15.07500000   -43.60000000
   69.64640000    15.08610000   -44.10000000
   69.66470000    15.09680000   -44.80000000
   69.68310000    15.10730000   -46.30000000
   69.70150000    15.11780000   -46.80000000
   69.71980000    15.12840000   -47.30000000
   69.73820000    15.13890000   -46.80000000
   69.79110000    15.08630000   -40.10000000
   69.79670000    15.06570000   -39.10000000
   69.80200000    15.04470000   -38.30000000
   69.80720000    15.02330000   -36.30000000
   69.81230000    15.00180000   -36.30000000
   69.81740000    14.98030000   -36.30000000
   69.82250000    14.95890000   -35.50000000
   69.82760000    14.93740000   -34.50000000
   69.83280000    14.91590000   -35.50000000
   69.83790000    14.89450000   -35.50000000
   69.84300000    14.87300000   -35.50000000
   69.84810000    14.85150000   -35.50000000
   69.85320000    14.83000000   -35.50000000
   69.85830000    14.80860000   -35.60000000
   69.86350000    14.78710000   -34.60000000
   69.86860000    14.76560000   -34.80000000
   69.87370000    14.74420000   -33.80000000
   69.87880000    14.72270000   -34.80000000
   69.88390000    14.70120000   -35.80000000
   69.88910000    14.67980000   -37.80000000
   69.89420000    14.65830000   -38.80000000
   69.89930000    14.63680000   -39.80000000
   69.90440000    14.61530000   -41.00000000
   69.90970000    14.59380000   -39.10000000
   69.91550000    14.57220000   -40.10000000
   69.92130000    14.55060000   -40.10000000
   69.92710000    14.52900000   -40.30000000
   69.93300000    14.50740000   -41.30000000
   69.93880000    14.48580000   -43.30000000
   69.94460000    14.46410000   -45.30000000
   69.95040000    14.44250000   -47.30000000
   69.95630000    14.42090000   -47.30000000
   69.96210000    14.39930000   -48.30000000
   69.96790000    14.37770000   -48.50000000
   69.97370000    14.35610000   -48.50000000
   69.97960000    14.33440000   -47.50000000
   69.99220000    14.28700000   -42.30000000
   70.01080000    14.23500000   -30.30000000
   70.01700000    14.21760000   -26.60000000
   70.02330000    14.20020000   -26.80000000
   70.02960000    14.18280000   -28.00000000
   70.03580000    14.16540000   -32.30000000
   70.04210000    14.14800000   -35.50000000
   70.04830000    14.13060000   -38.60000000
   70.05460000    14.11300000   -39.00000000
   70.06080000    14.09450000   -38.10000000
   70.06700000    14.07600000   -38.30000000
   70.07330000    14.05750000   -38.50000000
   70.07950000    14.03900000   -39.80000000
   70.08580000    14.02050000   -41.00000000
   70.09200000    14.00200000   -42.10000000
   70.09820000    13.98350000   -43.30000000
   70.10450000    13.96500000   -44.50000000
   70.11070000    13.94660000   -44.80000000
   70.11690000    13.92810000   -45.00000000
   70.12320000    13.90960000   -45.10000000
   70.12940000    13.89110000   -43.30000000
   70.13560000    13.87260000   -43.60000000
   70.14190000    13.85410000   -42.80000000
   70.14810000    13.83560000   -43.00000000
   70.15430000    13.81710000   -43.30000000
   70.16060000    13.79860000   -43.50000000
   70.16680000    13.78010000   -44.60000000
   70.17300000    13.76170000   -45.80000000
   70.17930000    13.74320000   -46.10000000
   70.18550000    13.72470000   -46.30000000
   70.19170000    13.70620000   -45.50000000
   70.11770000    13.63880000   -44.10000000
   70.09790000    13.62570000   -42.60000000
   70.07800000    13.61260000   -46.00000000
   70.05810000    13.59950000   -52.50000000
   70.03820000    13.58640000   -56.80000000
   70.01830000    13.57330000   -58.30000000
   69.99760000    13.56240000   -62.00000000
   69.97680000    13.55140000   -62.60000000
   69.95610000    13.54040000   -63.10000000
   69.93530000    13.52940000   -63.60000000
   69.83860000    13.47470000   -56.50000000
   69.81950000    13.46370000   -55.00000000
   69.80030000    13.45260000   -52.50000000
   69.78120000    13.44160000   -52.10000000
   69.76200000    13.43050000   -48.80000000
   69.74240000    13.41940000   -49.80000000
   69.72120000    13.40820000   -48.30000000
   69.69990000    13.39700000   -46.80000000
   69.67860000    13.38570000   -45.30000000
   69.65740000    13.37450000   -42.00000000
   69.63610000    13.36330000   -38.50000000
   69.61490000    13.35210000   -38.10000000
   69.59360000    13.34080000   -39.60000000
   69.57230000    13.32960000   -40.10000000
   69.55110000    13.31840000   -39.80000000
   69.52970000    13.30720000   -40.00000000
   69.50820000    13.29610000   -38.50000000
   69.48670000    13.28500000   -38.00000000
   69.41000000    13.24370000   -35.80000000
   69.39150000    13.23370000   -35.30000000
   69.37290000    13.22370000   -35.00000000
   69.35440000    13.21370000   -34.50000000
   69.33580000    13.20370000   -35.10000000
   69.31730000    13.19370000   -34.80000000
   69.29870000    13.18370000   -34.30000000
   69.28040000    13.17460000   -33.30000000
   69.26210000    13.16580000   -31.90000000
   69.24390000    13.15700000   -32.50000000
   69.22560000    13.14820000   -34.10000000
   69.20740000    13.13940000   -34.80000000
   69.18910000    13.13060000   -35.50000000
   69.17090000    13.12180000   -34.00000000
   69.15260000    13.11300000   -33.80000000
   69.08970000    13.08220000   -35.50000000
   69.06840000    13.07170000   -37.00000000
   69.04710000    13.06120000   -37.50000000
   69.02570000    13.05080000   -37.10000000
   69.00440000    13.04030000   -37.80000000
   68.98310000    13.02990000   -38.30000000
   68.96180000    13.01940000   -40.80000000
   68.94050000    13.00900000   -41.50000000
   68.91920000    12.99850000   -43.00000000
   68.89790000    12.98810000   -43.50000000
   68.87660000    12.97760000   -44.10000000
   68.85530000    12.96720000   -44.80000000
   68.83400000    12.95670000   -45.30000000
   68.81270000    12.94630000   -45.80000000
   68.79180000    12.93590000   -43.80000000
   68.77120000    12.92580000   -45.30000000
   68.75060000    12.91560000   -45.00000000
   68.73000000    12.90540000   -44.50000000
   68.70940000    12.89530000   -43.10000000
   68.68880000    12.88510000   -42.80000000
   68.66820000    12.87490000   -43.30000000
   68.64760000    12.86470000   -43.00000000
   68.62700000    12.85460000   -43.50000000
   68.60650000    12.84440000   -43.10000000
   68.58590000    12.83420000   -43.80000000
   68.56530000    12.82410000   -44.30000000
   68.54470000    12.81390000   -44.00000000
   68.52410000    12.80370000   -43.50000000
   68.50350000    12.79360000   -43.10000000
   68.48290000    12.78340000   -43.80000000
   68.46230000    12.77320000   -43.30000000
   68.44170000    12.76300000   -43.00000000
   68.42110000    12.75290000   -42.50000000
   68.40060000    12.74270000   -43.10000000
   68.38000000    12.73250000   -42.80000000
   68.35940000    12.72240000   -42.30000000
   68.33880000    12.71220000   -42.00000000
   68.31810000    12.70200000   -41.80000000
   68.29740000    12.69180000   -42.50000000
   68.27670000    12.68160000   -42.10000000
   68.25600000    12.67140000   -40.80000000
   68.23530000    12.66120000   -41.30000000
   68.21460000    12.65100000   -41.00000000
   68.19390000    12.64080000   -40.50000000
   68.17320000    12.63060000   -40.10000000
   68.15250000    12.62040000   -39.80000000
   68.13230000    12.61030000   -38.50000000
   68.11230000    12.60030000   -38.10000000
   68.09230000    12.59030000   -37.80000000
   68.07240000    12.58030000   -39.00000000
   68.05260000    12.57020000   -38.80000000
   68.03270000    12.56010000   -38.30000000
   68.01280000    12.55000000   -38.00000000
   67.99300000    12.53990000   -38.50000000
   67.97310000    12.52980000   -39.10000000
   67.95320000    12.51970000   -39.80000000
   67.93330000    12.50960000   -40.30000000
   67.91350000    12.49950000   -40.00000000
   67.89360000    12.48940000   -40.50000000
   67.87370000    12.47910000   -40.30000000
   67.85380000    12.46840000   -38.80000000
   67.83390000    12.45770000   -38.50000000
   67.81410000    12.44710000   -38.00000000
   67.79420000    12.43640000   -36.60000000
   67.77440000    12.42580000   -36.30000000
   67.75450000    12.41510000   -36.80000000
   67.73470000    12.40450000   -36.30000000
   67.71480000    12.39380000   -36.00000000
   67.69500000    12.38320000   -34.50000000
   67.67510000    12.37250000   -34.10000000
   67.65530000    12.36190000   -33.80000000
   67.63540000    12.35120000   -33.30000000
   67.61560000    12.34060000   -33.00000000
   67.59570000    12.32990000   -32.50000000
   67.57590000    12.31930000   -31.30000000
   67.55600000    12.30860000   -30.80000000
   67.53620000    12.29800000   -31.30000000
   67.51630000    12.28730000   -30.90000000
   67.49650000    12.27670000   -30.60000000
   67.47660000    12.26600000   -30.30000000
   67.45680000    12.25540000   -30.80000000
   67.43690000    12.24470000   -30.30000000
   67.41680000    12.23410000   -31.40000000
   67.39650000    12.22340000   -32.00000000
   67.37610000    12.21270000   -31.60000000
   67.35570000    12.20200000   -32.30000000
   67.33530000    12.19130000   -32.80000000
   67.31490000    12.18060000   -32.50000000
   67.29450000    12.16990000   -33.00000000
   67.27410000    12.15920000   -33.60000000
   67.25370000    12.14850000   -34.10000000
   67.23330000    12.13780000   -32.80000000
   67.15780000    12.10970000   -27.10000000
   67.13880000    12.10030000   -26.80000000
   67.11980000    12.09090000   -27.40000000
   67.10090000    12.08140000   -28.00000000
   67.08190000    12.07200000   -29.80000000
   67.06300000    12.06260000   -30.30000000
   67.04400000    12.05310000   -30.90000000
   67.02500000    12.04370000   -31.60000000
   67.00610000    12.03420000   -32.30000000
   66.98710000    12.02480000   -31.90000000
   66.96580000    11.92620000   -37.10000000
   66.96410000    11.90520000   -37.30000000
   66.96230000    11.88410000   -37.60000000
   66.96060000    11.86310000   -36.80000000
   66.95880000    11.84210000   -36.10000000
   66.95710000    11.82110000   -35.30000000
   66.95540000    11.80000000   -35.50000000
   66.95360000    11.77900000   -35.80000000
   66.95230000    11.76210000   -34.00000000
   66.95100000    11.74530000   -33.50000000
   66.94970000    11.72840000   -32.80000000
   66.94840000    11.71160000   -33.30000000
   66.94710000    11.69470000   -33.60000000
   66.94590000    11.67790000   -33.00000000
   66.94460000    11.66100000   -32.30000000
   66.94330000    11.64420000   -30.80000000
   66.94160000    11.62350000   -31.60000000
   66.93970000    11.60110000   -29.80000000
   66.93780000    11.57870000   -29.00000000
   66.93590000    11.55630000   -29.30000000
   66.93400000    11.53390000   -29.40000000
   66.93210000    11.51150000   -28.60000000
   66.93020000    11.48910000   -28.80000000
   66.92830000    11.46670000   -29.00000000
   66.92690000    11.44480000   -27.00000000
   66.92550000    11.42300000   -26.30000000
   66.92410000    11.40110000   -26.50000000
   66.92270000    11.37920000   -26.80000000
   66.92130000    11.35740000   -26.90000000
   66.91980000    11.33550000   -28.30000000
   66.91840000    11.31370000   -28.40000000
   66.91700000    11.29180000   -28.60000000
   66.91560000    11.27000000   -28.80000000
   66.91420000    11.24810000   -29.10000000
   66.91250000    11.22610000   -32.10000000
   66.91040000    11.20390000   -32.30000000
   66.90830000    11.18160000   -32.50000000
   67.09460000    11.15340000   -31.30000000
   67.11760000    11.15210000   -30.30000000
   67.14050000    11.15080000   -30.30000000
   67.16340000    11.14960000   -30.10000000
   67.18630000    11.14830000   -30.10000000
   67.20930000    11.14700000   -31.00000000
   67.23220000    11.14570000   -31.00000000
   67.25510000    11.14440000   -31.90000000
   67.27800000    11.14320000   -32.00000000
   67.30090000    11.14190000   -31.90000000
   67.32380000    11.14060000   -34.00000000
   67.34670000    11.13940000   -34.80000000
   67.36950000    11.13800000   -36.50000000
   67.39210000    11.13630000   -38.50000000
   67.41470000    11.13450000   -38.30000000
   67.43730000    11.13280000   -37.30000000
   67.46000000    11.13110000   -36.30000000
   67.48260000    11.12940000   -35.30000000
   67.50520000    11.12770000   -31.30000000
   67.52780000    11.12590000   -30.30000000
   67.55040000    11.12420000   -30.10000000
   67.57300000    11.12250000   -30.00000000
   67.59510000    11.12100000   -31.40000000
   67.61710000    11.11940000   -29.40000000
   67.63920000    11.11790000   -31.30000000
   67.66120000    11.11640000   -33.30000000
   67.68330000    11.11490000   -35.30000000
   67.70530000    11.11330000   -35.10000000
   67.72740000    11.11180000   -36.00000000
   67.74940000    11.11030000   -36.00000000
   67.77150000    11.10870000   -35.00000000
   67.79350000    11.10720000   -35.00000000
   67.81560000    11.10570000   -34.80000000
   67.83760000    11.10420000   -35.80000000
   67.85970000    11.10260000   -36.80000000
   68.00040000    11.08830000   -43.30000000
   68.02130000    11.08680000   -44.30000000
   68.04220000    11.08540000   -44.10000000
   68.06310000    11.08390000   -44.10000000
   68.08390000    11.08240000   -44.00000000
   68.10480000    11.08100000   -44.00000000
   68.12630000    11.07960000   -42.10000000
   68.14780000    11.07820000   -42.10000000
   68.16940000    11.07680000   -42.00000000
   68.19100000    11.07540000   -42.00000000
   68.21250000    11.07410000   -42.00000000
   68.23410000    11.07270000   -42.00000000
   68.25570000    11.07130000   -41.80000000
   68.27730000    11.06990000   -41.80000000
   68.29880000    11.06860000   -41.80000000
   68.32040000    11.06720000   -41.80000000
   68.34200000    11.06580000   -41.60000000
   68.36350000    11.06440000   -40.60000000
   68.38510000    11.06300000   -39.60000000
   68.40670000    11.06170000   -39.50000000
   68.42780000    11.05910000   -39.60000000
   68.44890000    11.05650000   -39.50000000
   68.47010000    11.05390000   -39.50000000
   68.49120000    11.05130000   -38.30000000
   68.51240000    11.04870000   -37.30000000
   68.53350000    11.04610000   -36.30000000
   68.58280000    11.03820000   -33.10000000
   68.59400000    11.03780000   -32.10000000
   68.60520000    11.03740000   -32.10000000
   68.61640000    11.03690000   -32.10000000
   68.62760000    11.03650000   -33.00000000
   68.63890000    11.03610000   -33.00000000
   68.69510000    11.03370000   -36.00000000
   68.71610000    11.03280000   -37.00000000
   68.73720000    11.03190000   -38.00000000
   68.75820000    11.03100000   -38.00000000
   68.77930000    11.03010000   -37.80000000
   68.80030000    11.02920000   -38.80000000
   68.82140000    11.02830000   -38.80000000
   68.84240000    11.02740000   -39.80000000
   68.86340000    11.02640000   -39.80000000
   68.88450000    11.02550000   -36.80000000
   68.90550000    11.02460000   -39.60000000
   68.92660000    11.02370000   -40.60000000
   68.94790000    11.02320000   -41.50000000
   68.96940000    11.02290000   -41.50000000
   68.99090000    11.02270000   -40.50000000
   69.01240000    11.02240000   -40.50000000
   69.03390000    11.02220000   -41.30000000
   69.05540000    11.02190000   -42.30000000
   69.07680000    11.02170000   -42.30000000
   69.09830000    11.02140000   -43.30000000
   69.11980000    11.02120000   -43.30000000
   69.14130000    11.02090000   -44.30000000
   69.16280000    11.02070000   -44.30000000
   69.18430000    11.02040000   -44.30000000
   69.20580000    11.02020000   -44.30000000
   69.22730000    11.01990000   -44.30000000
   69.27030000    11.01940000   -46.30000000
   69.29180000    11.01920000   -46.30000000
   69.31320000    11.01890000   -47.30000000
   69.33470000    11.01870000   -48.10000000
   69.35620000    11.01840000   -48.10000000
   69.37770000    11.01820000   -48.10000000
   69.39920000    11.01790000   -48.10000000
   69.42070000    11.01770000   -49.10000000
   69.44220000    11.01740000   -50.10000000
   69.46370000    11.01720000   -49.10000000
   69.48520000    11.01690000   -49.10000000
   69.50670000    11.01670000   -50.00000000
   69.52850000    11.01750000   -50.30000000
   69.55020000    11.01820000   -51.30000000
   69.57200000    11.01900000   -51.30000000
   69.59380000    11.01980000   -52.30000000
   69.61560000    11.02060000   -52.50000000
   69.63740000    11.02140000   -53.50000000
   69.65910000    11.02220000   -53.50000000
   69.68090000    11.02300000   -53.50000000
   69.70270000    11.02370000   -54.50000000
   69.74590000    11.02090000   -55.00000000
   69.76710000    11.01710000   -53.80000000
   69.78830000    11.01330000   -54.60000000
   69.80890000    11.01120000   -56.30000000
   69.82950000    11.00910000   -56.10000000
   69.85000000    11.00700000   -55.10000000
   69.87060000    11.00480000   -56.00000000
   69.89120000    11.00270000   -56.00000000
   69.91170000    11.00060000   -55.80000000
   69.93230000    10.99840000   -55.80000000
   69.95290000    10.99630000   -55.80000000
   69.97340000    10.99420000   -55.60000000
   69.99360000    10.99150000   -57.30000000
   70.01350000    10.98840000   -56.10000000
   70.03340000    10.98540000   -56.00000000
   70.05330000    10.98230000   -55.80000000
   70.07320000    10.97930000   -54.80000000
   70.09310000    10.97620000   -54.80000000
   70.11300000    10.97310000   -54.60000000
   70.13290000    10.97010000   -53.50000000
   70.15280000    10.96700000   -52.50000000
   70.17270000    10.96390000   -52.30000000
   70.19350000    10.96200000   -49.10000000
   70.21460000    10.96040000   -48.10000000
   70.23570000    10.95880000   -47.10000000
   70.25680000    10.95720000   -48.00000000
   70.28540000    10.90780000   -54.30000000
   70.29320000    10.88910000   -54.60000000
   70.30100000    10.87040000   -55.00000000
   70.30880000    10.85170000   -56.30000000
   70.31630000    10.83300000   -59.80000000
   70.32290000    10.81480000   -60.10000000
   70.32960000    10.79650000   -61.50000000
   70.33620000    10.77820000   -61.00000000
   70.34280000    10.76000000   -60.30000000
   70.34940000    10.74170000   -59.80000000
   70.35550000    10.72460000   -57.50000000
   70.36170000    10.70740000   -54.00000000
   70.36780000    10.69020000   -53.30000000
   70.37390000    10.67310000   -53.80000000
   70.38000000    10.65590000   -55.30000000
   70.38610000    10.63870000   -56.60000000
   70.39230000    10.62160000   -58.00000000
   70.39840000    10.60440000   -58.50000000
   70.40450000    10.58730000   -59.00000000
   70.40450000    10.53350000   -62.50000000
   70.40970000    10.52040000   -62.10000000
   70.41490000    10.50730000   -61.60000000
   70.42010000    10.49430000   -63.30000000
   70.44620000    10.43260000   -60.10000000
   70.45290000    10.41710000   -61.60000000
   70.45970000    10.40150000   -62.10000000
   70.46640000    10.38600000   -58.60000000
   70.47310000    10.37040000   -60.10000000
   70.47990000    10.35480000   -59.60000000
   70.48660000    10.33930000   -58.10000000
   70.49340000    10.32370000   -55.80000000
   70.50010000    10.30810000   -54.30000000
   70.50680000    10.29260000   -51.80000000
   70.51360000    10.27700000   -51.30000000
   70.52030000    10.26140000   -49.80000000
   70.52750000    10.24660000   -47.80000000
   70.53480000    10.23200000   -48.50000000
   70.54210000    10.21740000   -50.00000000
   70.54940000    10.20280000   -52.50000000
   70.55670000    10.18820000   -56.00000000
   70.56400000    10.17360000   -58.50000000
   70.57130000    10.15900000   -61.00000000
   70.57850000    10.14440000   -63.50000000
   70.58580000    10.12970000   -66.00000000
   70.59310000    10.11510000   -68.50000000
   70.60040000    10.10050000   -68.00000000
   70.60770000    10.08590000   -67.60000000
   70.65930000     9.99860000   -68.60000000
   70.67020000     9.98270000   -68.10000000
   70.68100000     9.96670000   -68.60000000
   70.69190000     9.95080000   -69.10000000
   70.70270000     9.93480000   -70.60000000
   70.71360000     9.91890000   -70.10000000
   70.72440000     9.90290000   -70.60000000
   70.73530000     9.88700000   -71.10000000
   70.74610000     9.87100000   -71.60000000
   70.75700000     9.85510000   -73.10000000
   70.76780000     9.83910000   -72.60000000
   70.77860000     9.82320000   -71.10000000
   70.78950000     9.80720000   -69.70000000
   70.80030000     9.79130000   -68.20000000
   70.81120000     9.77530000   -66.70000000
   70.82200000     9.75930000   -64.30000000
   70.83290000     9.74340000   -64.80000000
   70.84370000     9.72740000   -64.30000000
   70.77140000     9.71370000   -59.00000000
   70.75060000     9.71420000   -57.00000000
   70.72980000     9.71470000   -54.00000000
   70.66750000     9.71630000   -54.80000000
   70.64640000     9.71770000   -56.80000000
   70.62480000     9.72020000   -56.00000000
   70.60330000     9.72270000   -56.00000000
   70.58180000     9.72520000   -57.10000000
   70.56020000     9.72770000   -58.10000000
   70.53870000     9.73030000   -58.30000000
   70.51710000     9.73280000   -58.30000000
   70.49560000     9.73530000   -57.50000000
   70.47410000     9.73780000   -57.50000000
   70.45250000     9.74030000   -57.50000000
   70.43100000     9.74280000   -57.60000000
   70.40890000     9.74330000   -59.50000000
   70.38670000     9.74330000   -59.30000000
   70.36440000     9.74330000   -58.50000000
   70.34160000     9.74440000   -60.50000000
   70.31860000     9.74570000   -61.50000000
   70.29560000     9.74710000   -61.50000000
   70.27260000     9.74840000   -60.60000000
   70.24960000     9.74970000   -57.80000000
   70.22660000     9.75110000   -57.80000000
   70.20360000     9.75240000   -55.80000000
   70.18060000     9.75370000   -53.80000000
   70.15760000     9.75510000   -54.00000000
   70.13460000     9.75640000   -54.00000000
   70.11180000     9.75720000   -53.30000000
   70.08910000     9.75780000   -54.30000000
   70.06640000     9.75840000   -54.30000000
   70.04370000     9.75900000   -55.30000000
   70.02100000     9.75960000   -55.30000000
   69.99830000     9.76030000   -54.30000000
   69.97560000     9.76090000   -53.30000000
   69.95290000     9.76150000   -51.30000000
   69.93020000     9.76210000   -50.30000000
   69.90760000     9.76280000   -49.30000000
   69.88490000     9.76340000   -50.30000000
   69.86200000     9.76470000   -53.00000000
   69.83910000     9.76620000   -52.00000000
   69.81620000     9.76770000   -51.00000000
   69.79330000     9.76930000   -50.10000000
   69.77040000     9.77080000   -50.10000000
   69.74750000     9.77230000   -50.30000000
   69.72460000     9.77380000   -49.30000000
   69.70160000     9.77530000   -50.30000000
   69.67870000     9.77680000   -49.30000000
   69.65580000     9.77830000   -48.50000000
   69.63420000     9.77960000   -44.10000000
   69.61250000     9.78090000   -44.30000000
   69.59090000     9.78220000   -44.30000000
   69.44560000     9.80420000   -43.00000000
   69.42400000     9.80480000   -43.00000000
   69.40230000     9.80530000   -44.00000000
   69.38070000     9.80590000   -44.00000000
   69.35910000     9.80650000   -43.00000000
   69.33740000     9.80700000   -43.00000000
   69.31580000     9.80760000   -43.00000000
   69.29420000     9.80820000   -43.00000000
   69.27250000     9.80870000   -44.00000000
   69.25090000     9.80930000   -45.00000000
   69.22930000     9.80990000   -45.00000000
   69.20760000     9.81040000   -44.00000000
   69.18600000     9.81100000   -44.10000000
   69.16440000     9.81160000   -44.10000000
   69.14270000     9.81210000   -43.10000000
   69.12110000     9.81270000   -43.10000000
   69.09950000     9.81330000   -44.10000000
   69.07780000     9.81380000   -44.10000000
   69.05620000     9.81440000   -44.30000000
   69.03460000     9.81500000   -43.30000000
   69.01290000     9.81550000   -42.30000000
   68.99130000     9.81610000   -42.30000000
   68.96970000     9.81670000   -43.30000000
   68.94800000     9.81720000   -42.30000000
   68.92640000     9.81780000   -41.30000000
   68.90480000     9.81840000   -41.30000000
   68.88310000     9.81890000   -41.30000000
   68.86120000     9.81970000   -41.60000000
   68.83910000     9.82050000   -41.60000000
   68.81700000     9.82130000   -41.80000000
   68.79490000     9.82210000   -41.80000000
   68.77280000     9.82290000   -40.80000000
   68.75070000     9.82370000   -40.80000000
   68.72850000     9.82450000   -40.80000000
   68.70640000     9.82530000   -39.80000000
   68.65270000     9.82820000   -34.10000000
   68.63090000     9.82900000   -43.30000000
   68.60900000     9.82980000   -42.30000000
   68.58720000     9.83070000   -41.30000000
   68.56520000     9.82970000   -41.60000000
   68.54320000     9.82870000   -41.60000000
   68.52170000     9.82770000   -40.30000000
   68.50010000     9.82670000   -39.30000000
   68.47860000     9.82570000   -37.30000000
   68.45710000     9.82470000   -40.30000000
   68.43420000     9.82350000   -43.80000000
   68.41130000     9.82230000   -43.80000000
   68.38840000     9.82120000   -43.80000000
   68.27490000     9.84130000   -38.80000000
   68.25780000     9.84020000   -38.80000000
   68.24080000     9.83920000   -39.80000000
   68.22380000     9.83820000   -39.80000000
   68.20670000     9.83710000   -39.80000000
   68.18970000     9.83610000   -39.60000000
   68.14870000     9.83290000   -42.80000000
   68.12660000     9.83110000   -41.80000000
   68.10460000     9.82930000   -41.80000000
   68.08260000     9.82740000   -41.60000000
   68.06060000     9.82540000   -40.50000000
   68.03860000     9.82350000   -39.50000000
   68.01660000     9.82150000   -39.50000000
   67.99460000     9.81950000   -38.50000000
   67.97260000     9.81750000   -37.30000000
   67.95060000     9.81550000   -36.30000000
   67.92860000     9.81350000   -36.30000000
   67.90660000     9.81150000   -37.10000000
   67.88460000     9.80960000   -38.10000000
   67.86260000     9.80760000   -38.00000000
   67.84100000     9.80640000   -37.50000000
   67.81960000     9.80530000   -39.50000000
   67.79820000     9.80430000   -39.50000000
   67.77540000     9.80170000   -44.80000000
   67.75270000     9.79910000   -45.60000000
   67.73000000     9.79650000   -43.50000000
   67.70730000     9.79390000   -41.50000000
   67.68450000     9.79130000   -40.50000000
   67.66180000     9.78870000   -37.50000000
   67.63910000     9.78600000   -37.30000000
   67.61640000     9.78340000   -38.30000000
   67.59370000     9.78080000   -40.10000000
   67.57090000     9.77820000   -41.00000000
   67.54880000     9.77570000   -39.30000000
   67.52700000     9.77320000   -40.30000000
   67.50530000     9.77070000   -40.10000000
   67.48350000     9.76820000   -40.10000000
   67.46180000     9.76570000   -40.00000000
   67.44000000     9.76320000   -41.00000000
   67.41810000     9.76060000   -42.60000000
   67.39600000     9.75810000   -44.50000000
   67.37400000     9.75550000   -45.50000000
   67.35190000     9.75290000   -46.50000000
   67.32980000     9.75030000   -47.30000000
   67.30870000     9.74720000   -44.80000000
   67.28750000     9.74410000   -44.80000000
   67.26630000     9.74090000   -43.60000000
   67.24520000     9.73780000   -41.60000000
   67.22400000     9.73460000   -38.50000000
   67.20280000     9.73150000   -37.50000000
   67.18100000     9.72910000   -38.30000000
   67.15910000     9.72670000   -37.30000000
   67.11380000     9.72560000   -41.30000000
   67.09110000     9.72510000   -41.30000000
   67.06840000     9.72450000   -41.30000000
   67.04580000     9.72400000   -41.10000000
   67.02310000     9.72340000   -41.10000000
   67.00050000     9.72290000   -42.10000000
   66.97780000     9.72230000   -43.10000000
   66.95510000     9.72180000   -44.00000000
   66.93250000     9.72120000   -44.00000000
   66.90980000     9.72070000   -43.00000000
   66.88710000     9.72010000   -44.00000000
   66.86450000     9.71960000   -45.00000000
   66.84180000     9.71900000   -46.00000000
   66.81920000     9.71850000   -46.00000000
   66.79650000     9.71790000   -45.00000000
   66.77380000     9.71740000   -45.00000000
   66.75120000     9.71680000   -44.00000000
   66.72850000     9.71630000   -44.00000000
   66.70580000     9.71570000   -44.00000000
   66.68320000     9.71520000   -43.80000000
   66.66050000     9.71460000   -43.80000000
   66.63780000     9.71410000   -43.80000000
   66.61520000     9.71350000   -43.80000000
   66.59250000     9.71300000   -42.80000000
   66.56990000     9.71240000   -42.80000000
   66.54720000     9.71210000   -43.80000000
   66.52450000     9.71180000   -43.80000000
   66.50190000     9.71150000   -44.80000000
   66.47920000     9.71110000   -43.80000000
   66.45660000     9.71080000   -42.80000000
   66.43390000     9.71050000   -42.80000000
   66.29350000     9.72780000   -35.80000000
   66.27220000     9.72790000   -35.80000000
   66.25090000     9.72800000   -35.80000000
   66.22960000     9.72810000   -36.80000000
   66.20820000     9.72820000   -36.80000000
   66.18690000     9.72830000   -36.80000000
   66.16560000     9.72840000   -36.80000000
   66.14420000     9.72850000   -36.80000000
   66.12290000     9.72860000   -35.80000000
   66.10160000     9.72870000   -36.80000000
   66.08030000     9.72880000   -36.80000000
   66.05810000     9.72800000   -39.50000000
   66.03570000     9.72690000   -38.50000000
   66.01340000     9.72590000   -38.50000000
   65.99100000     9.72480000   -38.50000000
   65.96910000     9.72340000   -37.10000000
   65.94730000     9.72190000   -36.00000000
   65.92540000     9.72050000   -36.00000000
   65.90350000     9.71900000   -36.00000000
   65.88170000     9.71750000   -36.00000000
   65.85980000     9.71610000   -36.00000000
   65.83790000     9.71460000   -34.80000000
   65.81610000     9.71320000   -35.80000000
   65.79430000     9.71170000   -36.80000000
   65.77240000     9.71020000   -36.60000000
   65.75090000     9.70930000   -36.30000000
   65.72960000     9.70880000   -37.10000000
   65.70830000     9.70820000   -37.10000000
   65.68700000     9.70760000   -37.10000000
   65.66570000     9.70710000   -38.10000000
   65.64440000     9.70650000   -38.10000000
   65.62310000     9.70590000   -38.00000000
   65.60180000     9.70540000   -37.00000000
   65.58040000     9.70480000   -36.00000000
   65.55910000     9.70430000   -38.00000000
   65.53780000     9.70370000   -38.00000000
   65.51650000     9.70310000   -38.00000000
   65.49520000     9.70260000   -39.00000000
   65.47390000     9.70200000   -39.00000000
   65.45260000     9.70140000   -39.00000000
   65.43130000     9.70090000   -38.00000000
   65.41000000     9.70030000   -39.00000000
   65.38870000     9.69970000   -37.00000000
   65.36740000     9.69920000   -36.00000000
   65.34610000     9.69860000   -35.00000000
   65.32460000     9.69820000   -35.50000000
   65.30310000     9.69780000   -35.50000000
   65.25990000     9.70070000   -36.80000000
   65.23830000     9.70210000   -36.80000000
   65.21670000     9.70360000   -37.80000000
   65.19510000     9.70500000   -36.80000000
   65.17350000     9.70650000   -36.00000000
   65.15190000     9.70790000   -35.00000000
   65.13030000     9.70930000   -34.00000000
   65.10870000     9.71070000   -33.80000000
   65.08720000     9.71190000   -33.80000000
   65.06570000     9.71300000   -34.80000000
   65.04420000     9.71420000   -35.00000000
   65.02270000     9.71530000   -34.00000000
   65.00120000     9.71660000   -33.80000000
   64.97980000     9.71780000   -33.00000000
   64.95830000     9.71900000   -34.00000000
   64.93680000     9.72030000   -34.00000000
   64.91540000     9.72150000   -33.00000000
   64.89390000     9.72270000   -32.00000000
   64.87250000     9.72400000   -33.10000000
   64.85100000     9.72520000   -34.10000000
   64.82950000     9.72640000   -34.10000000
   64.80830000     9.72750000   -31.80000000
   64.78730000     9.72830000   -30.80000000
   64.76640000     9.72900000   -30.90000000
   64.74540000     9.72980000   -30.90000000
   64.72450000     9.73060000   -31.90000000
   64.70360000     9.73130000   -33.00000000
   64.68410000     9.73210000   -29.00000000
   64.66460000     9.73280000   -28.10000000
   64.64520000     9.73350000   -29.10000000
   64.62570000     9.73420000   -30.10000000
   64.60620000     9.73500000   -31.10000000
   64.58680000     9.73570000   -31.10000000
   64.56730000     9.73640000   -31.10000000
   64.54790000     9.73710000   -32.30000000
   64.52840000     9.73790000   -32.30000000
   64.50890000     9.73740000   -32.10000000
   64.48950000     9.73670000   -31.10000000
   64.47000000     9.73600000   -31.10000000
   64.45060000     9.73530000   -32.10000000
   64.43110000     9.73450000   -30.10000000
   64.41170000     9.73380000   -30.10000000
   64.36050000     9.70650000   -31.90000000
   64.33890000     9.70630000   -31.80000000
   64.31740000     9.70610000   -31.80000000
   64.29580000     9.70590000   -30.80000000
   64.27420000     9.70560000   -31.80000000
